0.202406 -0.043163 -0.089745
-0.124735 -0.073665 0.124812
-0.095566 -0.075052 0.147128
0.658400 -0.067456 0.243273
0.136675 -0.039945 -0.122640
-0.029934 -0.028795 -0.070045
-0.108906 -0.081701 0.253769
0.239733 0.060810 -0.071356
0.478781 -0.030324 0.270987
0.174262 0.100521 -0.125833
-0.331825 -0.054370 -0.058874
-0.325078 0.113670 -0.475492
0.134633 -0.023574 -0.144965
-0.506482 -0.075465 0.038341
-0.218453 -0.079008 0.246673
-0.009651 0.011584 -0.082597
0.552107 0.042529 -0.147923
0.405402 0.149401 -0.120446
0.557669 -0.061596 0.071016
-0.079528 -0.077736 0.223291
0.259754 -0.071086 0.227637
0.367866 0.035051 -0.156166
-0.272252 0.092323 -0.236677
0.076475 0.039197 0.031934
-0.222540 -0.053481 -0.057782
-0.033877 -0.069332 0.073130
-0.143339 -0.072469 0.091124
-0.257502 0.059381 -0.128951
0.151201 -0.062668 0.101448
-0.266113 0.065648 -0.206816
0.115550 -0.008086 0.120798
0.528346 -0.063485 0.278224
-0.276152 0.125324 -0.464176
-0.470614 -0.080274 0.360374
-0.565447 -0.073872 -0.008106
-0.256058 0.060327 -0.087898
-0.379114 0.114580 -0.068652
0.374641 -0.068074 0.223176
0.177139 0.122766 -0.140858
0.227132 -0.010455 -0.087843
0.286493 -0.066790 0.114850
-0.250742 -0.037565 -0.109008
0.356288 0.006872 -0.052210
-0.081393 0.101843 -0.108829
0.085340 -0.071528 0.161005
0.078639 0.017769 0.027939
0.138173 -0.025504 -0.102184
0.161472 0.025300 -0.088001
-0.064695 -0.076662 0.310120
-0.227197 0.015708 -0.071867
-0.062621 -0.076010 0.199571
0.222586 0.048762 -0.062195
-0.102476 0.096965 -0.129385
-0.453455 -0.074287 0.035871
0.637327 -0.060780 0.354206
-0.243117 0.068941 -0.160961
0.138169 -0.038551 -0.107020
0.114557 -0.004696 0.108050
-0.192499 -0.073835 0.446831
-0.279504 0.105959 -0.248449
-0.288710 0.103267 -0.300275
-0.375123 -0.078346 0.398602
0.496763 -0.034391 -0.110723
0.224188 -0.070388 0.150020
-0.388852 0.137662 -0.473626
0.467600 -0.028584 0.243629
0.518031 -0.066255 0.177182
-0.028303 -0.074718 0.345941
-0.332525 0.060540 -0.456645
-0.402910 -0.019752 -0.071060
-0.126885 -0.079591 0.238477
-0.277486 0.040018 -0.280697
0.312085 -0.068568 0.159954
-0.099373 0.137047 -0.150179
-0.126896 0.131829 -0.128971
-0.255746 -0.041166 -0.073152
0.175193 0.070597 -0.076395
-0.264029 0.100217 -0.385337
-0.262865 0.093397 -0.364556
0.138944 -0.066175 0.035404
-0.381439 0.103376 -0.474841
-0.073736 -0.068481 0.010550
-0.034914 -0.069655 0.066800
-0.295197 0.038048 -0.357336
-0.252532 0.002468 -0.112546
0.454866 -0.055421 -0.081176
-0.323001 0.103065 -0.472991
-0.378173 0.026449 -0.073880
-0.069560 0.042410 -0.102047
0.488578 -0.048752 -0.094829
-0.413879 -0.034050 -0.071576
0.040411 -0.073426 0.399853
-0.082377 0.120362 -0.159552
-0.481952 -0.025706 -0.067864
0.145050 -0.030593 -0.083977
-0.279942 -0.075880 0.168042
0.627944 -0.059171 0.440384
0.198218 -0.003697 -0.086580
-0.266317 -0.076797 0.187221
0.073487 0.027241 0.034217
-0.506055 -0.057396 -0.062061
-0.270069 0.113471 -0.394856
0.176832 0.066983 -0.123236
-0.084330 0.046101 -0.123088
-0.520216 -0.085058 0.258897
0.172791 0.066172 -0.077757
-0.466743 0.038692 -0.065739
0.395902 0.111608 -0.144518
0.421629 -0.068142 0.200838
-0.357074 -0.083304 0.252780
-0.459312 -0.082569 0.271691
-0.087333 0.110039 -0.117706
-0.064314 -0.077328 0.290400
0.400824 0.141858 -0.146640
0.178557 0.086484 -0.117728
-0.273593 0.137599 -0.381326
-0.355669 0.065084 -0.474684
0.218222 0.034701 -0.096189
0.627222 -0.057216 0.003671
0.868625 -0.052231 0.461086
0.648464 -0.056206 0.037192
0.179479 0.153436 -0.136574
-0.321943 0.105246 -0.477108
0.270841 -0.066706 0.481497
-0.244107 0.009219 -0.076730
0.086196 0.093578 0.030638
-0.361371 0.064823 -0.473273
0.120520 -0.061200 0.030114
0.466979 -0.053180 -0.106492
0.134249 -0.004869 -0.121940
0.178970 0.143134 -0.125238
0.032170 -0.077768 0.257747
0.187416 0.110920 -0.159496
0.611179 0.103056 -0.146612
0.481567 -0.009757 0.286848
0.642873 -0.064235 0.283707
0.368669 -0.055509 -0.033564
0.267341 -0.072359 0.217782
-0.365460 -0.082373 0.249838
0.071025 -0.015303 0.043489
-0.301670 -0.074956 0.437300
0.037051 -0.071742 0.449475
0.491510 -0.049933 0.284605
0.431365 -0.061205 0.342832
-0.514613 -0.082879 0.302608
-0.587456 -0.073393 -0.027377
0.082511 -0.070748 0.362989
0.128662 -0.056563 -0.075154
-0.372616 -0.020419 -0.069665
0.320677 0.057652 -0.149221
0.459056 -0.053369 -0.043648
-0.296821 -0.078375 0.238373
-0.283938 0.099717 -0.305164
0.275604 -0.071270 0.270339
-0.370756 -0.078402 0.411590
-0.266565 0.003042 -0.363321
-0.333035 0.060767 -0.408551
-0.046306 0.128743 -0.077919
-0.036707 0.091524 -0.078611
-0.028213 -0.073005 0.377966
-0.538014 -0.081932 0.215057
-0.320275 -0.071609 -0.015234
0.173762 0.149017 -0.171555
-0.635157 -0.036110 -0.061163
-0.245655 0.067421 -0.074262
-0.603848 -0.040229 -0.062355
0.179879 0.100091 -0.134864
-0.065793 -0.002527 -0.101248
0.174475 0.084266 -0.157150
0.655455 -0.057605 0.045609
-0.277390 0.096993 -0.305324
-0.212071 -0.074392 0.363028
0.752448 -0.060112 0.377312
-0.250380 -0.023798 -0.070903
-0.271823 0.050214 -0.187994
0.247523 -0.071331 0.187450
0.198722 0.129595 -0.165655
-0.447508 -0.021911 -0.068438
0.388575 0.102551 -0.167324
-0.073103 -0.021688 -0.092114
0.793963 -0.056691 -0.000123
-0.272965 0.045884 -0.246461
0.821707 -0.056505 0.062551
-0.285567 0.081448 -0.352585
-0.263933 -0.025123 -0.358554
0.079154 0.000342 0.033961
-0.390299 0.123983 -0.458187
-0.119747 -0.074093 0.112023
0.629239 0.131555 -0.126065
0.124415 0.060001 0.127002
0.270413 -0.070668 0.289161
-0.603413 -0.080395 0.342510
-0.485333 -0.080206 0.147195
0.120544 0.054529 0.119122
0.795699 -0.062794 0.495315
-0.244618 -0.017461 -0.157601
-0.038176 -0.077528 0.236921
-0.439702 -0.077787 0.472206
-0.529421 -0.037989 -0.067467
-0.112876 0.140703 -0.131238
0.077215 0.087810 0.044529
0.529286 0.000045 -0.114853
-0.273573 0.148087 -0.436875
-0.262909 0.013955 -0.201249
0.174790 0.047153 -0.070255
0.123048 0.078863 0.114261
-0.213800 0.132468 -0.076436
0.109336 0.029838 0.088133
-0.128595 -0.055658 -0.065159
0.104877 0.014897 0.059608
-0.264279 -0.017285 -0.362744
-0.556716 -0.076969 0.025300
0.183401 0.088025 -0.095790
0.432570 -0.068590 0.211004
0.406219 0.143416 -0.130437
0.119781 0.026771 0.116168
-0.307924 0.079047 -0.498976
0.459406 -0.050866 0.263653
-0.348620 -0.079100 0.237580
-0.011080 -0.063452 -0.058343
-0.549730 -0.082047 0.309062
-0.086291 -0.077574 0.206777
-0.055279 -0.074135 0.109624
-0.272450 0.124323 -0.425474
-0.063234 -0.068386 0.035221
0.187829 0.086371 -0.149063
-0.047425 0.054157 -0.077150
-0.576834 0.068340 -0.060202
0.189671 -0.027975 -0.087001
-0.301508 -0.075542 0.418365
-0.279959 0.110249 -0.454254
0.402524 0.029335 -0.060062
-0.576206 0.007222 -0.067234
0.267564 -0.061043 -0.021160
-0.289649 0.046201 -0.353606
-0.286995 -0.069222 -0.043553
-0.270294 0.113373 -0.387941
-0.268459 0.117857 -0.380406
-0.375366 0.019653 -0.065166
-0.067500 0.058081 -0.084274
0.249577 -0.006389 -0.091668
0.181589 0.076833 -0.103657
0.119744 0.010149 0.121675
0.751824 -0.064941 0.170618
-0.275451 0.042805 -0.272987
-0.573855 -0.068774 -0.042836
-0.317649 0.088337 -0.366296
0.135703 -0.073193 0.275069
-0.352087 0.110420 -0.474190
0.098418 0.043422 0.059040
-0.608464 -0.007533 -0.061697
-0.256785 -0.051791 -0.118136
0.382077 -0.065273 0.138254
-0.449396 -0.079219 0.431593
0.444711 -0.062839 0.063672
-0.085371 0.016188 -0.121913
-0.283857 0.103681 -0.449745
-0.272530 -0.017250 -0.441289
-0.033139 -0.074581 0.329959
0.074116 -0.015410 0.046974
0.183530 0.088875 -0.145403
0.396962 0.111676 -0.122399
0.311363 -0.041321 -0.096019
-0.262877 0.041893 -0.203964
-0.259464 0.102963 -0.082604
-0.523543 0.039186 -0.063436
0.191111 0.123398 -0.151828
-0.279746 0.015838 -0.312164
0.612743 0.060745 -0.152596
0.411728 -0.060454 -0.001039
-0.205333 -0.075300 0.119182
0.362552 0.025207 -0.053413
-0.477066 0.050781 -0.066473
-0.317974 -0.072065 -0.007112
-0.333659 0.085288 -0.394238
-0.104319 -0.041676 -0.106913
-0.088785 0.103305 -0.096658
0.115946 0.044643 0.130739
-0.279245 0.007662 -0.281938
-0.074121 0.146245 -0.102173
0.464164 -0.047587 0.265723
-0.464581 0.054703 -0.067182
0.175316 -0.021096 -0.089083
-0.257402 0.109423 -0.077969
0.616461 -0.055555 -0.002706
-0.003410 -0.012990 -0.073557
-0.083878 -0.029928 -0.105211
-0.432073 0.014835 -0.070451
-0.299624 0.072888 -0.358050
-0.263900 0.074744 -0.354439
-0.535931 0.054648 -0.062517
0.071883 -0.073382 0.218907
-0.243272 0.002622 -0.131438
0.190230 0.132523 -0.165766
-0.377602 -0.078070 0.194171
-0.056942 -0.078509 0.264342
-0.264781 0.074076 -0.370082
-0.374960 -0.059885 -0.053172
-0.250240 0.108874 -0.193132
0.174141 0.116832 -0.143634
-0.109701 0.002429 -0.126936
0.454244 0.098573 0.289040
-0.125670 -0.052900 -0.084760
-0.517538 -0.082982 0.237979
0.075502 -0.064254 0.049772
0.232632 -0.068163 0.077503
0.165033 0.034279 -0.159378
-0.444774 -0.076453 0.107272
0.126736 -0.029468 0.115099
-0.389730 0.094730 -0.061874
0.089766 -0.063323 0.031978
-0.550048 -0.079314 0.396691
0.157346 0.058571 -0.174290
-0.307977 0.055477 -0.357859
-0.062139 -0.078339 0.270536
-0.458406 -0.081529 0.281692
0.181767 0.138041 -0.110518
0.013384 -0.070958 0.127592
0.402918 0.143719 -0.123507
-0.549543 -0.010228 -0.063552
-0.544707 0.067524 -0.063645
0.079536 -0.013021 0.043860
0.142986 0.132213 -0.171304
0.083155 0.048302 0.051314
0.654005 -0.063238 0.486051
-0.272397 0.074496 -0.245741
0.108842 -0.059438 -0.086150
0.179272 0.106399 -0.136356
0.136539 -0.052590 -0.087648
0.180615 0.065877 -0.093214
-0.249869 0.096722 -0.116366
0.044917 -0.062550 -0.064235
-0.096812 -0.032297 -0.125281
0.176723 0.067887 -0.080928
-0.264648 0.147620 -0.358082
0.156027 -0.059612 -0.019918
-0.090177 0.103785 -0.109074
0.489592 -0.062130 0.127863
-0.333238 0.085354 -0.389301
0.180828 0.128582 -0.126174
-0.241584 0.003085 -0.199090
0.458383 -0.063097 0.276497
-0.106987 0.145091 -0.126905
-0.253795 0.081846 -0.106496
-0.591543 0.071118 -0.061988
0.133507 -0.065754 0.108982
0.531249 -0.063958 0.347509
0.188017 -0.036605 -0.086979
-0.272484 0.099173 -0.336125
-0.536015 -0.080531 0.407848
0.176517 0.092678 -0.094210
-0.269250 -0.031360 -0.398256
-0.070639 0.122255 -0.081053
-0.293475 0.005899 -0.364472
-0.229660 0.006912 -0.071140
0.503565 -0.057885 0.005057
0.363976 -0.065143 0.458440
-0.267865 0.116544 -0.370345
0.239818 -0.013688 -0.090488
-0.294487 -0.068346 -0.043712
0.267982 0.129775 -0.179510
0.113408 -0.064826 0.093776
0.218055 0.138394 -0.181004
0.120280 -0.059533 0.092018
-0.430776 -0.076524 0.127127
-0.263780 0.062389 -0.376292
-0.315391 -0.068563 -0.053655
0.495970 -0.031697 -0.089542
-0.126205 0.013655 -0.125800
-0.267387 0.137874 -0.382582
0.601092 0.099769 -0.167621
-0.253046 0.140148 -0.071379
0.030668 -0.076481 0.263520
0.145413 0.031793 -0.148739
-0.602602 -0.082155 0.223454
-0.461883 -0.048782 -0.064475
-0.248746 0.073601 -0.074767
-0.027408 -0.000020 -0.074569
-0.006701 -0.062701 -0.065472
-0.577272 -0.079006 0.411551
0.070513 -0.042985 0.044724
0.242333 -0.060471 -0.058054
-0.241244 0.062927 -0.143028
-0.134198 0.056287 -0.125775
-0.271582 0.084184 -0.341569
-0.513940 0.071229 -0.065679
-0.275899 0.105891 -0.402017
0.412793 0.030349 -0.089312
-0.048926 -0.074194 0.427218
-0.140912 -0.015000 -0.120163
-0.349829 0.126317 -0.473653
-0.535061 0.098353 -0.065814
0.492187 -0.060522 0.286903
0.151294 0.097575 -0.095311
-0.252957 -0.016451 -0.099655
0.071852 0.082466 0.044050
0.271444 -0.069459 0.336412
-0.277194 0.108194 -0.232643
-0.276007 0.100176 -0.400522
-0.022159 0.052374 -0.080404
-0.481566 -0.079631 0.162384
-0.253908 0.111498 -0.096108
-0.072534 -0.076812 0.260562
-0.278184 0.019263 -0.298899
0.150421 0.086522 -0.173564
-0.045195 0.037549 -0.079407
-0.242924 0.041502 -0.143476
-0.270075 0.147146 -0.396679
-0.318667 -0.076906 0.337044
0.374923 0.067499 -0.163221
0.093220 0.036984 0.054483
-0.212477 -0.078761 0.272398
-0.255436 -0.049809 -0.083008
-0.383283 0.079054 -0.070308
-0.546921 -0.018774 -0.064441
-0.244751 0.099671 -0.187530
-0.269361 -0.001685 -0.327582
-0.378679 0.098779 -0.476786
-0.493352 -0.078679 0.152787
0.126161 -0.049628 0.098169
-0.274757 0.110579 -0.418074
0.133135 -0.073070 0.293411
-0.491841 0.091037 -0.064778
0.505295 0.056569 0.285937
-0.445418 -0.015837 -0.069872
-0.273208 0.050771 -0.242804
0.289826 0.044036 -0.126500
0.193600 0.129085 -0.171326
-0.074223 0.090152 -0.104058
-0.082993 -0.006233 -0.103760
0.196493 -0.067531 0.450516
-0.266044 0.036641 -0.373426
-0.373904 0.137913 -0.471689
-0.433799 -0.076901 0.399476
-0.490120 -0.002303 -0.063993
-0.601150 -0.035170 -0.063026
0.401548 0.128444 -0.160518
-0.062084 -0.073283 0.400953
0.483257 -0.008511 0.276348
-0.026090 0.062409 -0.081194
-0.087060 0.124768 -0.124110
0.139001 -0.034766 -0.109474
-0.266042 0.146428 -0.365074
-0.194646 -0.063656 -0.058641
-0.022602 -0.034492 -0.070318
0.117081 0.071774 0.090582
0.193237 0.046176 -0.090070
-0.244739 0.128201 -0.169034
0.181963 0.091699 -0.112147
-0.234048 0.070270 -0.072042
0.208033 0.028729 -0.085867
-0.313471 0.092885 -0.422139
0.129428 -0.009440 -0.164597
-0.031350 -0.072606 0.393430
-0.268382 0.142679 -0.391523
-0.632323 -0.017865 -0.057727
-0.249269 0.107431 -0.084094
-0.361204 0.147190 -0.474496
0.317007 -0.063519 0.044535
0.459772 -0.024065 0.247840
-0.028190 -0.067229 0.004724
0.184849 0.037657 -0.100948
-0.300763 0.030537 -0.353224
-0.117749 -0.044320 -0.087693
-0.618400 -0.060191 -0.048842
0.392775 0.107277 -0.130542
0.163192 0.034665 -0.082911
0.113437 0.099175 0.095597
0.349322 -0.064737 0.079851
0.288874 0.041380 -0.131617
0.402736 0.123066 -0.131688
0.624305 -0.060914 0.290539
0.457833 -0.055317 -0.071084
-0.508265 -0.065885 -0.049366
-0.246562 0.026213 -0.191690
-0.621253 0.067986 -0.060177
-0.499179 -0.079882 0.225202
0.357336 -0.070503 0.217267
0.118807 -0.064938 0.017955
-0.218251 -0.051678 -0.058403
-0.085684 -0.007052 -0.119792
-0.208690 -0.080433 0.247466
0.484761 -0.019540 0.281974
-0.251244 0.092491 -0.091848
-0.299025 0.055276 -0.355073
-0.269417 0.067516 -0.223319
-0.256627 -0.068463 -0.051258
0.142286 -0.069789 0.427126
-0.200816 0.111808 -0.085404
0.505481 0.079037 0.285218
0.473617 0.059218 0.265173
-0.178372 -0.051805 -0.082598
0.416880 0.104795 -0.117938
0.084781 -0.070904 0.135559
-0.452438 -0.007693 -0.065005
0.075827 0.080076 0.041987
-0.271686 0.002102 -0.326719
-0.270504 0.097076 -0.242056
-0.320050 -0.076076 0.348962
0.040821 -0.061193 -0.065086
-0.300243 -0.051540 -0.072306
-0.191468 -0.076275 0.144857
-0.206752 -0.040773 -0.074355
0.209275 0.132437 -0.095421
-0.108417 -0.041286 -0.105366
0.249864 0.053746 -0.079048
-0.270958 -0.005659 -0.325008
-0.261951 0.055051 -0.119050
-0.279530 -0.023880 -0.299914
-0.270627 0.102391 -0.468269
0.654744 -0.061964 0.477364
0.109074 -0.006648 0.085661
0.202629 -0.068191 0.108438
0.082445 -0.000254 0.026076
-0.310662 -0.072103 -0.002148
0.353491 0.052139 -0.146645
-0.028305 -0.063612 -0.065695
0.421781 -0.055756 -0.080885
-0.544670 -0.079594 0.346665
-0.522182 -0.082539 0.233858
0.638580 -0.065365 0.209409
-0.383071 0.102539 -0.061995
-0.463730 -0.052854 -0.063764
0.180500 0.086578 -0.090340
0.214788 0.037261 -0.100012
0.180002 0.104196 -0.161408
-0.038545 -0.032471 -0.069632
-0.469502 -0.082095 0.263623
0.188156 0.099671 -0.157231
0.534482 -0.060009 0.051318
0.189108 0.068523 -0.144057
-0.044370 0.029716 -0.076420
-0.245868 0.128202 -0.173263
0.223513 0.130977 -0.178152
0.122501 0.073168 0.078141
-0.043236 -0.066870 -0.022992
0.121613 -0.013402 0.119454
0.275209 0.004079 -0.093637
-0.017267 0.044760 -0.081159
0.346052 -0.063469 0.442789
-0.271345 -0.009087 -0.424618
-0.555826 -0.084110 0.280107
0.188142 -0.068756 0.356564
0.390248 -0.064096 0.141517
-0.056526 -0.068756 0.039881
-0.611412 -0.080065 0.462852
0.439233 -0.064318 0.429419
0.757996 -0.054807 -0.039187
-0.068957 -0.078779 0.241029
-0.480278 -0.080490 0.149080
0.173872 -0.046265 -0.084115
-0.493269 0.056861 -0.067052
-0.099611 -0.075102 0.137687
-0.499171 0.066492 -0.064058
0.373133 0.003695 -0.048111
-0.541355 -0.083440 0.247154
-0.269345 -0.036043 -0.370026
0.540015 -0.062574 0.483981
0.495571 -0.055620 0.283080
0.270943 -0.069739 0.328010
0.146226 0.057527 -0.168464
-0.215663 0.092873 -0.075796
-0.264835 -0.016777 -0.358254
0.144878 0.010554 -0.116599
0.344265 -0.065937 0.389633
0.157246 0.028387 -0.143688
-0.242852 0.012407 -0.142135
-0.272750 0.078160 -0.216728
-0.272317 0.080951 -0.382625
-0.254722 -0.051103 -0.105795
-0.253490 0.106572 -0.202536
-0.598790 -0.060198 -0.047372
-0.241834 0.062835 -0.150098
-0.268730 -0.004066 -0.210137
0.448377 -0.013022 -0.102999
0.477082 0.048499 0.273002
-0.107553 -0.041658 -0.098681
-0.056891 -0.016790 -0.069147
0.047066 -0.072877 0.196552
-0.256738 0.128622 -0.075005
-0.190061 -0.072444 0.473981
0.631348 -0.057093 -0.001422
-0.273154 0.069672 -0.357424
0.737796 -0.061999 0.157398
-0.274750 -0.007917 -0.442187
-0.330926 0.082565 -0.403588
-0.469478 -0.000307 -0.064017
-0.042630 0.084819 -0.076502
-0.511565 -0.079736 0.120425
-0.107864 -0.059805 -0.064050
0.594337 -0.055476 -0.047618
-0.116264 -0.017056 -0.126899
-0.068953 0.017784 -0.103618
-0.464660 -0.058940 -0.045433
-0.471019 -0.078079 0.124261
-0.018604 -0.064322 -0.061369
0.164529 0.033514 -0.139887
-0.263800 0.075558 -0.201790
0.168041 0.149453 -0.104360
-0.379299 0.132256 -0.066042
-0.279248 0.023557 -0.306186
0.521907 -0.061141 0.468745
0.618288 0.145004 -0.178025
-0.535959 0.059904 -0.060956
0.426149 -0.060694 0.022627
0.135081 -0.049702 -0.100064
-0.318824 0.056195 -0.359700
-0.242244 -0.006709 -0.150102
-0.275023 -0.039918 -0.416501
0.175073 -0.022278 -0.084469
0.187410 0.092105 -0.161005
0.222881 -0.069722 0.157369
-0.255808 0.099435 -0.067340
0.106085 0.054701 0.051613
-0.261956 0.127289 -0.351132
-0.254115 0.111602 -0.113210
-0.263234 0.124444 -0.354417
-0.523170 -0.014242 -0.065050
-0.268138 0.097089 -0.396898
0.589041 -0.033870 -0.069323
-0.095554 0.146116 -0.161607
-0.010394 -0.017476 -0.072367
0.139027 -0.037991 -0.083723
-0.263620 0.036975 -0.356919
-0.596632 0.068656 -0.059536
0.187120 0.121371 -0.138707
-0.296608 -0.074074 0.478546
-0.311863 0.011639 -0.360147
0.154788 0.096197 -0.178348
0.135698 -0.011635 -0.133483
-0.332505 -0.074270 0.097952
-0.592191 0.077542 -0.065712
-0.377515 0.075757 -0.069714
0.105853 -0.069870 0.165939
-0.253469 0.140631 -0.102587
0.347204 -0.065548 0.413722
-0.006138 -0.075467 0.191932
-0.042749 -0.007196 -0.069796
-0.294566 -0.073067 0.013943
0.482308 -0.034276 0.282496
0.089907 0.001439 0.052233
-0.032133 -0.076700 0.272887
0.502252 -0.045355 -0.092341
-0.246068 0.118300 -0.152441
-0.253178 0.140767 -0.107839
-0.433509 -0.076674 0.412025
-0.307558 0.070396 -0.361777
0.432761 -0.061825 0.492143
-0.103626 0.067259 -0.129310
-0.001104 -0.064450 -0.033676
-0.085133 0.052047 -0.122038
-0.342840 0.122413 -0.474812
-0.069664 0.096885 -0.109266
0.622557 0.115485 -0.123718
0.621559 0.137434 -0.128410
0.088957 0.043510 0.014845
0.595730 0.089155 -0.159320
-0.276639 -0.003084 -0.310240
-0.561855 -0.080698 0.354442
0.435824 -0.067186 0.340491
0.112128 0.010240 0.110241
-0.265741 -0.013235 -0.368156
-0.424652 -0.076293 0.441796
-0.249842 0.122622 -0.129719
-0.567050 0.117648 -0.064300
-0.241476 0.000182 -0.171370
0.319471 -0.016912 -0.096902
-0.537672 0.069846 -0.065712
-0.367812 -0.040869 -0.070785
0.081408 -0.070736 0.152025
0.182150 0.019435 -0.095904
-0.254293 0.083231 -0.200375
0.517622 -0.065530 0.169244
-0.010538 -0.075670 0.175716
-0.350868 0.062511 -0.475547
-0.244398 0.069491 -0.134177
0.194568 0.116697 -0.167548
-0.252832 0.138135 -0.203203
-0.219847 0.084083 -0.069374
-0.452808 -0.071548 -0.029869
-0.137185 -0.031678 -0.121239
-0.355840 -0.077583 0.337061
0.401701 0.123475 -0.124354
0.084329 0.030638 0.017912
-0.129925 -0.003505 -0.127788
0.111087 0.009830 0.088702
-0.150910 -0.075342 0.112593
0.144140 0.020313 -0.096443
-0.258332 0.115201 -0.202157
-0.011507 -0.069933 0.108775
-0.377063 0.134272 -0.471926
0.231388 -0.009240 -0.088155
0.106651 0.035066 0.089428
0.186897 0.018448 -0.098200
0.135162 -0.068720 0.116606
0.503630 -0.051539 0.282213
-0.335443 0.057261 -0.474971
0.186238 -0.068294 0.333990
0.125801 -0.070071 0.128502
-0.383177 0.070174 -0.072287
-0.068563 0.130368 -0.089294
-0.599364 0.071454 -0.061960
-0.053979 0.102437 -0.077048
-0.245143 0.027867 -0.142971
0.309372 -0.048916 -0.095491
0.206270 -0.063414 0.021945
0.374774 -0.065629 0.115797
0.430066 -0.062283 0.018052
-0.073195 -0.045660 -0.078557
0.131119 -0.043662 0.098607
0.350219 -0.069370 0.270286
0.411553 -0.066910 0.190749
0.060519 -0.071837 0.120252
-0.104140 -0.074267 0.147881
-0.243768 -0.038903 -0.076225
-0.127808 -0.047234 -0.087856
-0.080018 0.100790 -0.102902
0.087507 -0.068042 0.072147
0.461954 0.119484 0.285921
-0.559048 -0.081641 0.188859
-0.343881 0.078951 -0.472381
0.534396 -0.064825 0.305753
-0.121192 0.123020 -0.128115
-0.246477 0.003124 -0.200779
-0.329188 0.138701 -0.475496
-0.264762 -0.008546 -0.362563
0.388615 0.097773 -0.138268
-0.259051 0.022558 -0.202609
0.179632 0.133431 -0.092839
-0.468681 -0.047949 -0.062404
0.176296 0.136134 -0.182511
0.351022 -0.068198 0.291039
-0.251012 0.112232 -0.203952
-0.029956 -0.074648 0.150739
-0.208222 -0.010101 -0.075290
-0.257539 -0.033920 -0.096703
0.079482 -0.070289 0.374083
0.631527 -0.057345 0.405224
-0.375377 0.019948 -0.070423
-0.585897 -0.086168 0.263427
-0.132285 -0.046730 -0.087454
0.166515 0.047952 -0.145236
0.336298 0.006787 -0.040851
0.174014 -0.007218 -0.083290
0.133134 -0.027241 -0.153067
0.170660 0.034829 -0.133461
0.093684 -0.065137 0.065993
0.073208 0.083609 0.034588
-0.285004 0.096884 -0.432840
0.213664 -0.063036 0.027099
-0.308736 -0.057827 -0.055859
-0.170087 -0.060988 -0.060546
0.433245 -0.042727 -0.100312
0.147785 0.041570 -0.163385
-0.325493 0.086380 -0.410217
0.141568 -0.000869 -0.098384
0.167984 0.037033 -0.076017
0.459160 0.006698 0.244577
0.135032 -0.000399 -0.125512
-0.251100 -0.074461 0.447524
0.474340 0.034865 0.271352
0.072268 -0.003151 0.042787
0.231425 -0.070538 0.158612
-0.086081 -0.010664 -0.112368
-0.079666 -0.066466 0.018973
0.344933 -0.064883 0.464967
-0.498491 -0.074893 0.052359
0.197333 -0.067705 0.482095
0.086806 0.056339 0.035392
-0.130512 -0.072884 0.111411
-0.011636 -0.046900 -0.070442
-0.177284 -0.059786 -0.061181
-0.273148 0.121097 -0.429477
-0.242357 0.042693 -0.152856
0.845799 -0.051887 -0.094019
0.163514 -0.052069 -0.080259
-0.280452 0.056914 -0.300978
-0.333942 0.058258 -0.461521
0.135618 0.042958 -0.164839
0.517926 -0.059247 0.274840
-0.626298 -0.076673 0.086891
-0.281198 0.032078 -0.293779
0.128246 -0.023078 0.120387
0.187306 0.083801 -0.063008
-0.032010 0.137476 -0.078176
-0.105685 -0.072940 0.458761
0.851674 -0.050628 -0.081728
-0.088048 0.112128 -0.109456
0.360266 -0.057095 -0.045758
-0.226804 0.117796 -0.070746
0.171954 0.115518 -0.180431
-0.138062 -0.001085 -0.122227
-0.243382 0.089167 -0.140805
0.456945 -0.063564 0.059185
-0.241004 0.046800 -0.149614
-0.000849 -0.049801 -0.066938
-0.277426 0.004405 -0.269246
0.231097 0.014315 -0.098840
0.620193 0.090964 -0.147018
-0.275611 0.136526 -0.458433
-0.130602 0.020456 -0.126486
-0.075336 0.033915 -0.107143
0.582153 -0.042548 -0.067816
0.322443 0.028803 -0.136803
-0.302318 0.042922 -0.359721
0.088015 -0.075559 0.246535
0.085249 -0.057369 -0.100451
-0.278688 0.040064 -0.359480
-0.135523 0.114808 -0.128945
0.087084 0.068761 0.029687
0.481169 -0.045681 0.279698
-0.557791 -0.026942 -0.064998
0.044160 -0.077051 0.244860
0.066590 -0.073792 0.224583
-0.336188 0.075471 -0.371110
0.472217 -0.064087 0.097125
-0.283663 0.139531 -0.478080
0.160864 0.030787 -0.098832
0.107046 0.040170 0.102113
-0.631436 -0.081955 0.392623
0.557499 -0.068286 0.208236
-0.212801 -0.072467 0.045033
-0.067358 0.066159 -0.083873
-0.267699 0.077518 -0.208633
0.177675 0.126207 -0.154736
-0.283090 0.105515 -0.278177
-0.252017 0.140648 -0.129139
0.631607 -0.064576 0.193689
-0.040090 -0.077351 0.266908
0.079957 0.013052 0.020157
-0.278681 0.009828 -0.290506
-0.501464 -0.079103 0.138249
0.075451 -0.060676 0.047046
-0.288738 -0.078905 0.244462
0.070658 -0.058150 0.044735
-0.278592 0.116065 -0.288085
-0.279761 0.144273 -0.291828
0.496057 -0.052455 0.286223
0.139118 -0.054088 -0.076203
0.081620 0.017986 0.043904
-0.254136 0.101792 -0.073179
-0.078852 0.031146 -0.107545
-0.228716 -0.074531 0.088495
-0.280689 0.144676 -0.308818
0.143890 0.067388 -0.170111
-0.254133 0.100945 -0.096601
0.107241 -0.064848 -0.006833
-0.023346 0.091939 -0.079216
-0.275394 -0.038669 -0.439641
0.616022 0.150169 -0.179814
0.152606 0.019616 -0.136164
-0.229897 -0.006133 -0.066632
-0.073002 -0.025396 -0.070655
-0.246583 -0.069872 -0.044794
-0.379545 -0.078732 0.378252
0.525677 -0.065411 0.180402
-0.303303 -0.051145 -0.080390
0.139766 -0.072449 0.299491
0.137529 0.147211 -0.166358
-0.275603 0.131504 -0.282937
-0.250971 0.070585 -0.079954
0.122429 0.056180 0.049650
0.370192 -0.065470 0.109326
0.115271 -0.003778 0.099113
-0.357536 0.138272 -0.475177
0.536181 -0.013656 -0.117367
0.451288 -0.065792 0.269495
0.016677 -0.068964 0.046731
-0.048770 -0.070066 0.045164
-0.279044 0.003825 -0.290546
-0.281039 0.052024 -0.303917
0.126431 -0.063058 0.103795
-0.311815 0.066574 -0.361778
0.871528 -0.052810 -0.063042
-0.215550 -0.070491 -0.003326
0.142838 -0.055758 -0.060623
0.466945 0.006361 0.237366
-0.171988 -0.070614 -0.044038
0.246349 -0.070745 0.191897
0.158325 -0.069857 0.196163
0.661787 -0.067988 0.231489
-0.072791 -0.025726 -0.075900
0.171664 0.064223 -0.127045
-0.278933 0.119438 -0.291204
-0.036378 -0.077484 0.258794
0.476397 -0.057229 -0.012202
0.195215 0.133669 -0.171513
-0.146026 -0.073477 0.071961
-0.110767 0.093043 -0.129380
-0.509409 -0.078030 0.453610
0.050208 -0.057016 0.039985
-0.223382 -0.075248 0.099114
-0.235788 0.008261 -0.076458
0.400689 -0.066349 0.167504
0.447958 -0.055302 -0.086729
-0.085463 0.070406 -0.111243
-0.245894 0.134170 -0.134489
-0.382491 -0.077698 0.188468
0.234206 -0.069574 0.140749
-0.267391 0.079577 -0.362488
-0.035076 -0.008208 -0.070794
-0.252171 0.121257 -0.202834
-0.248575 0.059872 -0.177179
0.530892 -0.065674 0.267320
-0.276039 0.080807 -0.242274
-0.335710 0.027201 -0.367629
0.426812 -0.061273 0.029169
-0.051374 -0.014705 -0.068838
-0.275823 0.118512 -0.448087
-0.308182 0.088334 -0.364242
-0.315690 0.088124 -0.379025
0.478185 0.022484 0.273744
-0.369791 0.113361 -0.472191
0.120705 0.064842 0.113152
-0.052384 -0.074676 0.423288
-0.313925 -0.075253 0.117257
-0.112214 -0.033563 -0.124016
-0.245860 0.065669 -0.176968
-0.613833 -0.077203 0.096652
0.139107 -0.043111 -0.089607
-0.276049 0.024666 -0.261740
-0.286288 -0.063944 -0.048213
-0.246896 0.124995 -0.202359
-0.068146 0.112837 -0.075447
-0.080179 -0.039525 -0.093941
-0.015932 0.134454 -0.081173
0.533764 -0.065657 0.243126
-0.389490 0.105446 -0.060354
0.406723 0.122530 -0.122213
0.332736 -0.039130 -0.061778
-0.273378 0.143052 -0.234409
0.177174 0.089759 -0.164130
-0.546555 0.102237 -0.056656
0.138923 0.035415 -0.167201
-0.299294 0.136112 -0.477797
0.826360 -0.051366 -0.127008
0.631928 -0.062090 0.328321
0.078841 0.026627 0.018967
-0.517897 0.077869 -0.064039
0.160329 -0.066407 0.081415
-0.268306 -0.014494 -0.410160
-0.315321 0.088650 -0.370211
-0.445006 -0.078505 0.346435
0.365884 0.062860 -0.168075
0.135790 0.006139 -0.145736
-0.254408 0.111297 -0.074051
-0.530363 0.046710 -0.063141
0.400092 -0.060598 0.015462
-0.274093 0.095910 -0.432521
0.096899 -0.072724 0.175771
0.199842 0.051348 -0.058307
-0.247261 -0.074388 0.062130
-0.067099 0.009210 -0.076346
0.581411 -0.053606 -0.065872
0.312058 -0.068175 0.168726
-0.281048 0.139268 -0.302237
0.075590 -0.011927 0.039940
0.373725 0.057765 -0.147809
-0.580535 -0.082061 0.203730
-0.156774 -0.072024 0.053422
0.212632 0.008126 -0.095250
0.495801 -0.037616 0.276860
0.504392 -0.058196 0.289966
-0.264106 0.100141 -0.392436
-0.276962 0.057220 -0.251031
0.645180 0.143290 -0.127949
-0.072071 0.119857 -0.087756
0.132927 -0.008816 -0.143686
0.614296 0.143563 -0.149337
0.530263 -0.063506 0.397753
0.703255 -0.061849 0.102638
0.190115 0.022029 -0.079585
-0.334307 0.092090 -0.474349
0.074311 0.017760 0.019999
0.519428 -0.047706 -0.110928
-0.263779 -0.019834 -0.343742
0.520087 -0.027159 -0.111418
-0.273851 0.052984 -0.174638
0.218780 0.033921 -0.101553
-0.575296 -0.083693 0.251801
-0.276220 0.111396 -0.429980
-0.400179 -0.083905 0.257763
0.410858 -0.061563 0.010782
-0.072107 -0.073613 0.337824
0.523257 -0.060250 0.451635
-0.024649 0.083955 -0.077207
-0.329500 0.147871 -0.475395
0.031750 -0.078016 0.240334
-0.244785 0.101360 -0.138402
-0.075953 -0.002497 -0.114283
0.525824 -0.059801 0.390538
-0.318999 0.038677 -0.359401
-0.073160 0.083104 -0.087209
-0.106934 -0.076665 0.187919
-0.062589 -0.066278 -0.050072
-0.350069 0.118583 -0.474874
0.107808 0.024042 0.107424
-0.254629 0.091956 -0.121579
-0.277810 0.020248 -0.287784
-0.278632 0.115666 -0.462838
0.828082 -0.055741 0.074501
-0.341041 -0.079693 0.237548
-0.244042 0.059199 -0.158229
0.112112 0.010372 0.115089
0.103001 -0.066982 0.083749
-0.627104 -0.052853 -0.057072
0.473062 -0.023064 0.235978
-0.112675 -0.074840 0.372179
0.077754 0.007026 0.046993
-0.405007 -0.066798 -0.054205
-0.627790 -0.061772 -0.038179
-0.016869 -0.067856 0.013225
-0.247091 0.134285 -0.172947
0.151614 -0.069803 0.483720
-0.321482 0.144707 -0.475211
-0.276156 0.112344 -0.247211
-0.070729 0.030432 -0.087643
-0.316642 0.093097 -0.297164
0.613275 0.167766 -0.133077
-0.020288 0.040925 -0.080716
0.123275 0.027440 0.121574
-0.071250 -0.009741 -0.068481
-0.539948 0.056301 -0.062212
-0.089733 -0.077056 0.222594
-0.251011 0.103168 -0.168220
-0.267488 -0.007434 -0.395212
-0.243654 0.023552 -0.164756
-0.306818 0.034725 -0.355052
0.386619 0.063164 -0.144816
-0.278385 0.098450 -0.293076
-0.509869 0.087380 -0.063381
-0.071873 0.024985 -0.104502
0.684386 -0.060737 0.074614
-0.525127 -0.076484 0.065120
0.092340 0.026736 0.052550
0.150815 -0.037908 -0.084334
0.467177 0.073743 0.285907
0.083267 0.061472 0.030620
0.080888 -0.069922 0.388232
0.343512 -0.069760 0.320530
0.130656 -0.069002 0.123428
-0.307649 0.084028 -0.493404
0.402589 0.138995 -0.135959
0.443243 -0.063150 0.318911
0.211216 -0.070450 0.478003
-0.328274 0.087703 -0.474667
0.853043 -0.058995 0.084343
0.462593 0.017146 0.259127
-0.083017 -0.001859 -0.117326
-0.046135 -0.073896 0.127578
-0.089355 -0.047239 -0.088329
-0.329508 0.031371 -0.356009
-0.219168 0.059468 -0.072927
-0.185561 -0.056163 -0.071190
-0.509124 -0.079382 0.211585
0.469159 -0.024708 0.242081
-0.251165 -0.003264 -0.186687
-0.363731 -0.076725 0.472330
0.635048 -0.062327 0.343325
-0.272716 -0.020972 -0.433704
0.088144 0.029806 0.055572
-0.128050 0.095822 -0.129464
0.308671 0.068915 -0.137239
0.449883 -0.063335 0.053818
0.212054 0.045190 -0.098367
0.474385 0.012832 0.266766
0.434262 -0.065151 0.351312
-0.629440 -0.074732 -0.024361
-0.002344 -0.053576 -0.073704
0.075933 -0.057353 -0.102517
0.501931 0.003668 -0.108493
0.172158 0.054864 -0.126326
-0.600377 -0.083466 0.242488
-0.602928 -0.079580 0.412054
0.111017 0.025341 0.115944
0.611412 0.055812 -0.168328
-0.326811 0.069319 -0.419197
0.625829 -0.058489 0.452456
-0.279982 0.001405 -0.313225
-0.379101 -0.000205 -0.068217
-0.360327 0.109300 -0.470223
0.397912 -0.058552 -0.008413
0.670810 -0.067509 0.226944
0.173415 -0.069720 0.223860
0.162600 0.015294 -0.092600
-0.273451 -0.002925 -0.286750
-0.192516 -0.050871 -0.081330
0.541406 0.026429 -0.130136
0.655816 -0.058641 0.033340
0.191084 -0.072759 0.230032
-0.281694 0.077217 -0.372645
-0.151003 -0.073802 0.105381
-0.360801 -0.073399 0.066437
-0.338150 0.128312 -0.476013
0.068084 -0.066745 0.049199
-0.526138 0.046067 -0.062535
-0.131622 -0.070871 -0.001647
-0.001638 -0.073553 0.181992
-0.122613 -0.039640 -0.116357
0.236287 0.058328 -0.189410
0.529903 0.019463 -0.122792
-0.271640 0.100232 -0.356998
0.288427 -0.006901 -0.093300
-0.503061 -0.080399 0.353813
-0.313357 -0.076030 0.373724
-0.279341 0.063917 -0.312425
-0.585279 0.126864 -0.060794
0.826505 -0.050923 -0.118442
-0.070120 -0.076417 0.210512
-0.256533 -0.015755 -0.075629
-0.397199 -0.083092 0.273624
-0.446610 -0.074582 0.046390
-0.007595 -0.039467 -0.070669
0.275430 0.071528 -0.110437
0.202375 -0.067715 0.483091
0.177374 0.089622 -0.152152
-0.247313 0.081329 -0.154701
-0.191516 -0.073058 0.074593
-0.067801 -0.062300 -0.066474
-0.265842 0.113157 -0.357131
-0.546694 -0.078140 0.087459
-0.272474 0.119664 -0.433655
-0.287733 0.108049 -0.421946
-0.110936 -0.074693 0.150495
-0.331693 0.062902 -0.462389
0.282379 0.056130 -0.127720
-0.142285 -0.073029 0.105920
0.546045 -0.060879 0.061980
0.263170 -0.072160 0.208920
-0.042303 0.113158 -0.078372
0.177689 0.001625 -0.086499
-0.118149 -0.080264 0.246996
-0.326238 -0.080205 0.275812
-0.254154 0.017136 -0.071482
0.161637 0.063700 -0.168569
-0.106473 -0.030377 -0.125551
-0.276782 -0.051550 -0.139887
0.187858 0.022609 -0.104842
0.161226 0.050227 -0.146549
0.266798 -0.069083 0.326393
0.133446 -0.041536 -0.156685
-0.248617 0.120489 -0.187096
0.535749 -0.063475 0.441803
0.325055 -0.068638 0.191690
-0.086923 0.001668 -0.121923
0.522392 -0.064085 0.202666
-0.273456 -0.032201 -0.413685
-0.499422 -0.079764 0.132698
0.509103 -0.040031 -0.111674
0.613954 -0.063462 0.160146
-0.026641 -0.020767 -0.070566
0.173032 0.151073 -0.180306
0.266691 -0.068300 0.351880
-0.227851 0.069929 -0.072727
0.210709 -0.060544 0.016784
-0.318621 0.100049 -0.478728
0.639358 -0.057285 0.005442
-0.059816 0.004891 -0.075292
-0.014185 -0.038907 -0.069514
-0.296846 0.021775 -0.352378
0.859327 -0.051458 -0.073746
-0.333433 0.061608 -0.428906
-0.329155 0.077150 -0.367173
-0.262510 0.096119 -0.357924
0.347277 -0.068450 0.288424
0.022114 -0.069070 0.056882
-0.359849 -0.082022 0.268567
0.056302 -0.069914 0.113332
0.354817 -0.063436 0.066253
0.135688 -0.047096 -0.108285
-0.108983 0.061141 -0.128869
-0.070773 -0.067403 0.024709
0.090894 0.043624 0.052555
-0.275570 -0.010803 -0.267634
0.739616 -0.062275 0.165013
0.664546 0.124059 -0.129388
-0.540438 -0.081269 0.334465
0.115074 0.091865 0.095828
0.301433 -0.067549 0.148390
-0.252759 0.015190 -0.089297
0.615461 0.092310 -0.127886
0.494106 -0.050646 -0.089711
0.156417 0.027971 -0.163450
0.135290 0.009966 -0.153815
-0.262551 -0.004161 -0.366512
-0.037422 0.130201 -0.078408
-0.553886 0.104257 -0.058711
-0.118306 -0.077278 0.313229
-0.241779 0.074517 -0.139668
-0.324475 0.087610 -0.440547
0.465856 -0.033467 0.254345
0.747999 -0.059072 0.478783
0.756553 -0.060767 0.355606
-0.573374 -0.075993 0.016923
0.591896 -0.025666 -0.069503
0.214747 0.050739 -0.099962
0.080546 -0.071230 0.136932
0.273717 0.014822 -0.091276
-0.576312 0.018784 -0.061846
0.269826 -0.070097 0.305044
0.467114 -0.014139 0.266628
-0.395639 -0.077632 0.167946
0.347333 -0.064004 0.065711
-0.249010 0.100823 -0.087370
-0.028115 0.112102 -0.078682
0.413719 -0.062973 0.476945
-0.594611 -0.078885 0.438791
-0.075260 -0.065764 -0.063536
-0.251429 0.008610 -0.083097
-0.275595 0.142667 -0.447545
-0.063748 -0.075047 0.349732
-0.260898 0.059688 -0.116184
-0.067187 -0.000875 -0.094114
0.176180 0.146003 -0.106543
0.461490 0.003168 0.243903
-0.116266 -0.076582 0.326575
-0.569270 -0.082446 0.322967
0.195098 -0.067285 0.471448
-0.343652 -0.080829 0.230140
0.415308 -0.063198 0.469311
-0.076491 0.129311 -0.104793
0.389758 0.108782 -0.158399
-0.537857 0.047127 -0.062896
-0.040034 0.109101 -0.076619
0.135500 -0.044871 -0.135344
-0.064764 -0.075447 0.331983
0.144494 -0.069172 0.474602
0.185674 0.135920 -0.149876
-0.448263 -0.080681 0.198468
-0.587618 -0.076267 0.001262
-0.560494 0.069354 -0.062399
0.596447 -0.043866 -0.065767
0.122217 -0.073803 0.214783
-0.595132 -0.077754 0.036914
-0.241513 0.075716 -0.147606
-0.463235 0.080886 -0.066951
0.491579 0.056398 0.285532
0.525373 -0.008583 -0.112565
0.363147 0.034571 -0.154507
-0.276045 0.092244 -0.319516
-0.164942 -0.073561 0.108715
-0.290978 0.030336 -0.351268
-0.607111 -0.077530 0.034753
0.347638 -0.069916 0.224676
0.084886 0.058370 0.016160
-0.264105 -0.020134 -0.349708
0.150279 -0.060009 0.091435
0.566471 -0.070682 0.223736
0.168766 0.100749 -0.157244
0.195060 -0.072857 0.250081
-0.604868 -0.080912 0.134663
0.220294 -0.068495 0.133465
-0.033206 0.033108 -0.078049
0.103988 -0.065410 0.089215
-0.257004 0.007272 -0.200974
0.176764 0.062540 -0.081762
0.634573 0.142921 -0.125248
0.047413 -0.062590 -0.070238
-0.242141 -0.071915 0.003250
-0.140839 -0.074845 0.131812
-0.275481 0.099304 -0.376586
-0.283942 0.101775 -0.262090
0.190763 0.123730 -0.166059
0.077086 0.017458 0.013624
-0.268003 0.072063 -0.214670
0.472383 0.055620 0.267208
0.186942 -0.067597 0.368202
-0.007566 0.080631 -0.080605
-0.511882 -0.076607 0.080759
-0.278002 -0.022817 -0.278855
0.274222 -0.059943 -0.004176
0.183272 0.052841 -0.162140
-0.248547 0.122476 -0.191541
-0.443615 0.008917 -0.065964
-0.082785 -0.018696 -0.111340
-0.271276 0.117079 -0.407444
0.285367 0.028760 -0.126932
-0.568471 -0.019020 -0.064839
0.202845 0.021618 -0.066815
0.180542 0.093621 -0.090387
0.446575 -0.062028 0.266031
-0.504383 -0.078623 0.376443
-0.283190 0.106855 -0.453253
0.478636 0.017397 0.268964
-0.312292 0.050716 -0.358978
0.189951 0.102063 -0.097898
-0.314485 0.102930 -0.477575
-0.131925 0.012828 -0.125381
-0.266875 -0.006045 -0.404584
-0.115069 -0.004560 -0.129179
-0.383854 -0.076095 0.111435
-0.114131 -0.040722 -0.098207
-0.332731 0.071334 -0.399588
-0.247555 0.129988 -0.075604
0.041589 -0.066380 0.008356
-0.083968 0.110947 -0.115084
0.180815 0.086478 -0.127617
0.599299 0.060336 -0.150409
-0.000769 -0.048886 -0.073751
-0.266062 0.102864 -0.067865
0.109847 -0.030847 0.036082
0.023702 -0.067304 0.047840
-0.269548 -0.010657 -0.397708
0.107730 0.030333 0.106785
0.612356 0.124816 -0.189648
0.194922 -0.049819 -0.087432
-0.565833 -0.078561 0.142088
0.770939 -0.056037 -0.026559
-0.273969 0.077088 -0.238470
-0.268313 -0.022713 -0.393904
-0.121618 -0.079672 0.254408
0.137247 -0.011408 -0.105922
-0.615460 -0.023156 -0.059410
0.272387 -0.068317 0.399698
0.121489 -0.059614 -0.065668
0.077802 -0.006655 0.036892
0.348534 -0.066373 0.386158
0.469025 -0.038395 0.257413
0.616993 0.154083 -0.140525
-0.244937 0.035696 -0.147809
-0.270794 0.096177 -0.440165
0.771721 -0.055344 -0.018358
-0.113502 0.120202 -0.129305
-0.250797 0.103247 -0.155642
0.070192 -0.074101 0.227772
-0.251805 0.078302 -0.088504
0.615785 0.112169 -0.125430
0.174186 0.046518 -0.157563
0.149854 0.090336 -0.098508
0.632869 0.148881 -0.125895
-0.450412 0.075087 -0.068195
-0.031068 0.088131 -0.077245
-0.254467 -0.076817 0.203752
0.409094 0.030103 -0.069602
-0.204864 0.085016 -0.083830
0.142710 -0.015816 -0.107938
0.171213 0.078567 -0.177056
0.115023 -0.073080 0.210274
-0.276998 0.020582 -0.273285
0.406230 0.096253 -0.138391
-0.433958 -0.076722 0.117403
0.266149 -0.067597 0.394477
0.446146 -0.070093 0.235668
-0.242561 0.133766 -0.142968
0.406349 0.098850 -0.107137
-0.064451 -0.066389 -0.044688
-0.055224 -0.076804 0.233479
-0.133064 -0.073203 0.103440
0.122717 0.076978 0.075070
-0.251960 -0.047207 -0.100618
0.120757 -0.007712 0.115174
-0.316706 0.135323 -0.478221
-0.267182 0.128409 -0.207971
0.354913 -0.067276 0.350572
-0.397403 -0.052426 -0.069558
-0.349806 -0.077817 0.349371
-0.270480 0.103478 -0.334887
0.199862 0.110242 -0.094802
-0.269904 0.069374 -0.240187
-0.446504 -0.046293 -0.067052
-0.187110 -0.045423 -0.084068
-0.273957 0.134939 -0.445544
0.138073 0.002841 -0.110724
0.398023 0.130106 -0.172826
0.766265 -0.055926 -0.040278
-0.270568 0.090549 -0.388866
0.076683 0.035278 0.034014
0.004565 -0.064767 -0.029456
-0.311606 0.092263 -0.430453
-0.274076 0.081019 -0.224456
0.461478 0.016357 0.245331
-0.380866 0.093926 -0.067198
-0.287244 0.125316 -0.476989
-0.624535 -0.076826 0.016257
0.135666 -0.072830 0.312495
0.165876 -0.067409 0.079922
-0.116138 -0.077716 0.299312
0.536031 0.033483 -0.128730
-0.249006 -0.074854 0.462266
0.397384 0.126571 -0.154397
-0.352882 -0.076536 0.362186
0.140461 0.016175 -0.091363
-0.233934 -0.072119 0.005769
-0.398235 -0.081403 0.290757
0.584402 0.047258 -0.160469
-0.284296 0.098318 -0.439870
-0.452140 -0.080309 0.202443
-0.308189 0.014575 -0.360954
0.087225 0.072120 0.033315
-0.114838 -0.073574 0.131579
-0.323941 0.080087 -0.360742
-0.567876 -0.082759 0.316853
-0.374285 -0.016962 -0.064206
0.608539 0.103284 -0.187051
-0.232209 -0.001782 -0.071212
0.167947 0.060374 -0.163119
-0.376562 0.056597 -0.065579
0.276722 -0.070954 0.305786
-0.464812 0.090624 -0.067958
-0.154890 -0.052487 -0.085065
-0.358972 0.103582 -0.466644
0.640253 -0.058231 0.018230
0.101197 0.027965 0.131470
0.272896 -0.067840 0.431247
0.371181 -0.059759 -0.030406
-0.085718 0.053313 -0.113594
-0.054462 0.037961 -0.078585
0.450867 -0.063569 0.069223
-0.271321 0.113832 -0.200908
-0.259808 0.093440 -0.070386
-0.258437 0.103482 -0.074438
0.352139 -0.065448 0.435913
0.695035 -0.060177 0.102368
0.423157 -0.049490 -0.102833
-0.548133 -0.082651 0.247819
-0.438613 -0.005337 -0.066116
0.539598 -0.063827 0.411762
-0.280160 0.108862 -0.263968
-0.247430 -0.058214 -0.056511
-0.046391 0.111701 -0.078034
-0.071421 0.061010 -0.107882
0.489553 0.073598 0.284993
-0.064004 -0.030486 -0.067028
0.341319 -0.066307 0.354091
0.168380 0.024873 -0.084153
0.123007 0.072040 0.119502
-0.268838 -0.030947 -0.392078
-0.447364 -0.078539 0.452552
-0.337126 0.079995 -0.381157
0.166910 0.063534 -0.128474
-0.389139 -0.056342 -0.052075
0.145136 -0.074056 0.256153
-0.282680 0.100032 -0.412921
-0.118888 -0.050922 -0.085668
-0.250741 0.026322 -0.106737
0.135511 -0.018045 -0.158214
-0.251246 0.026167 -0.117128
0.366226 0.022121 -0.044277
-0.128251 -0.075761 0.163959
-0.335382 0.112294 -0.475392
0.122518 0.096876 0.099734
-0.322393 0.096876 -0.479833
-0.276463 0.119335 -0.281828
0.107878 0.053207 0.104467
0.119464 -0.027333 0.112265
0.282436 0.007915 -0.093376
0.181444 -0.016869 -0.087409
0.615981 0.076396 -0.151482
0.265039 0.070045 -0.070890
0.136624 -0.054602 0.104620
-0.266663 0.120368 -0.363317
-0.011143 0.001117 -0.079575
0.188841 -0.065948 0.478716
-0.250731 0.063684 -0.182436
-0.335313 0.030591 -0.362843
0.119527 -0.069389 0.116902
-0.062816 -0.074367 0.367141
-0.251076 0.036788 -0.202586
-0.072368 -0.013055 -0.076639
-0.248902 0.059301 -0.084875
-0.248606 0.001142 -0.094283
0.181131 0.096574 -0.163056
-0.056196 -0.074218 0.407137
-0.623495 -0.080760 0.403962
0.462541 -0.057081 -0.050981
0.631057 -0.056725 0.417434
0.273022 0.070233 -0.104605
-0.335157 0.055165 -0.391954
-0.402580 -0.037913 -0.072127
0.140480 -0.069483 0.434363
0.089446 0.094893 0.028234
-0.066788 -0.006094 -0.068743
0.373689 0.042011 -0.154121
-0.361549 0.087479 -0.466290
0.648063 -0.056324 0.027181
-0.090912 -0.007726 -0.125318
0.082954 0.061656 0.040816
0.176191 0.120751 -0.150426
0.620999 -0.061313 0.186551
0.754267 -0.062361 0.253733
-0.272701 0.091653 -0.245292
0.871050 -0.054339 0.469502
-0.504735 -0.079588 0.360660
-0.265804 0.081203 -0.340764
-0.531402 0.097369 -0.061578
-0.248443 -0.002327 -0.181269
-0.250921 0.105523 -0.144945
-0.459661 -0.058831 -0.050462
0.483189 -0.000711 0.284911
0.110118 0.019040 0.065585
-0.122448 -0.000260 -0.129475
-0.099901 -0.077363 0.192170
-0.074962 -0.034047 -0.074775
0.367059 -0.066124 0.473511
0.239094 -0.064318 0.057185
-0.246612 0.139078 -0.190598
-0.272592 0.120520 -0.201593
0.338658 0.015505 -0.041969
-0.137983 -0.074782 0.147347
0.430412 -0.064441 0.421003
0.484139 -0.051113 -0.105588
-0.335760 0.058801 -0.466656
-0.140986 0.023956 -0.124318
-0.293845 0.100571 -0.469930
-0.357709 -0.079691 0.240339
0.599057 0.047203 -0.160284
-0.051460 0.117173 -0.077027
-0.299677 -0.074570 0.446146
0.463822 -0.065030 0.488622
0.228762 0.055673 -0.060298
-0.246183 0.031580 -0.157761
-0.307454 0.083851 -0.358161
0.189376 0.135414 -0.094342
0.573490 -0.042415 -0.078570
0.358419 0.019080 -0.055974
-0.087635 0.116335 -0.123236
0.479369 0.029866 0.284562
0.125725 -0.073237 0.228586
-0.112666 -0.074865 0.113068
-0.599542 -0.084961 0.252955
0.331730 0.020368 -0.131775
-0.333922 0.072465 -0.382781
-0.215911 -0.077830 0.280925
0.043909 -0.070095 0.086852
0.349059 -0.068125 0.296441
0.631764 -0.061598 0.350587
-0.263714 0.007517 -0.340228
0.490606 -0.067239 0.484878
-0.536385 -0.073787 0.018573
-0.093375 0.142002 -0.153796
-0.214196 0.055793 -0.074693
-0.110611 0.136483 -0.146147
-0.268102 -0.005356 -0.425968
-0.251867 -0.032255 -0.111706
0.417387 -0.060902 0.036808
0.467885 -0.031062 -0.109149
0.501059 -0.047214 -0.109059
-0.124750 -0.005324 -0.124787
0.461950 -0.021798 -0.107761
0.377752 -0.053758 -0.026646
-0.264966 0.012518 -0.352175
0.147505 -0.058863 0.116170
0.092454 0.058537 0.049677
-0.337662 0.035695 -0.367337
0.379554 -0.071996 0.485445
-0.506835 -0.074701 0.045140
-0.296233 0.046197 -0.359198
0.615614 0.056588 -0.159213
0.204134 0.048412 -0.093577
-0.228434 0.136973 -0.071299
-0.071865 0.119956 -0.093109
-0.276353 -0.009873 -0.291801
0.088791 0.031890 0.016854
0.068777 -0.023371 0.042962
-0.361068 -0.078894 0.303112
-0.609567 0.001016 -0.057054
-0.246742 0.077732 -0.170431
-0.063429 0.095600 -0.075381
-0.494694 -0.078927 0.405641
-0.230255 -0.040838 -0.066025
0.073911 -0.071183 0.322096
0.129620 -0.060108 -0.061172
-0.215812 -0.072545 0.037878
-0.535952 -0.041667 -0.065916
-0.539182 -0.065417 -0.044097
0.201435 0.117379 -0.093695
-0.348889 0.131588 -0.473436
0.752381 -0.059369 0.480232
0.699865 -0.060163 0.094961
0.123148 -0.021539 0.103386
0.430973 -0.063311 0.028964
-0.353809 0.096878 -0.475817
-0.027685 -0.072794 0.430603
-0.253069 0.117589 -0.081878
-0.119989 0.027083 -0.127061
-0.628044 -0.025436 -0.062362
0.480053 0.082162 0.271143
-0.151054 -0.072310 0.086661
-0.588494 0.002147 -0.061687
-0.051883 -0.066815 -0.030165
0.081136 0.010425 0.047908
-0.082271 0.038266 -0.106502
-0.288706 0.100074 -0.443788
-0.254051 -0.047709 -0.070351
0.621771 0.156710 -0.125397
0.193082 -0.071036 0.294959
0.103874 0.071187 0.039161
-0.112620 -0.070756 0.025980
-0.401128 0.001342 -0.068223
-0.265943 0.120266 -0.357642
0.684262 -0.058831 0.091634
-0.288201 0.005816 -0.366276
-0.487441 -0.054694 -0.062210
0.477816 -0.021826 0.277485
0.399758 0.148834 -0.152953
0.406777 0.125606 -0.109771
-0.296233 0.132426 -0.478379
0.175253 -0.070894 0.219562
-0.266536 0.125500 -0.203185
0.110060 0.015018 0.124171
-0.274173 0.094241 -0.347119
-0.145027 -0.073081 0.078289
-0.260503 0.100172 -0.090781
-0.083630 -0.010457 -0.103618
0.277087 0.063169 -0.099855
0.115849 -0.065636 0.004146
-0.581022 0.127301 -0.062427
0.190332 0.151442 -0.154167
-0.318961 -0.057777 -0.053764
0.612069 0.078184 -0.194084
-0.037195 0.017502 -0.078562
-0.253714 0.032643 -0.125067
0.189714 -0.072027 0.257763
0.358177 0.026173 -0.053714
-0.349728 -0.067722 -0.052648
0.522832 0.014298 -0.119180
0.528415 -0.016118 -0.112866
-0.264468 -0.002605 -0.382477
0.217954 0.013068 -0.096136
-0.268417 -0.014049 -0.384856
0.195547 -0.067290 0.462458
-0.231942 -0.024127 -0.068647
0.202442 0.059207 -0.095993
-0.573234 -0.021211 -0.064570
-0.262139 0.085314 -0.200148
0.117549 0.032239 0.070842
0.136617 0.006023 -0.126378
-0.271626 -0.014067 -0.236131
0.262242 0.076817 -0.068725
-0.270270 0.088947 -0.207140
0.174272 -0.071670 0.214556
0.187706 0.070380 -0.094739
0.604673 0.050160 -0.164504
0.179773 0.118352 -0.137913
-0.353208 -0.079333 0.220140
0.239648 -0.070698 0.164375
-0.270953 0.052272 -0.329991
0.278556 0.046989 -0.091002
-0.552403 0.029397 -0.063886
-0.514524 -0.082185 0.310742
0.496186 -0.048267 -0.095409
-0.160951 -0.072186 0.076146
0.204522 -0.051136 -0.088470
-0.337543 0.039106 -0.363725
-0.461878 0.064319 -0.069173
-0.464460 -0.009841 -0.065600
0.171455 0.104202 -0.159241
0.062393 -0.060377 0.047853
0.352798 -0.066260 0.416514
0.477277 -0.027408 0.260408
-0.060898 -0.074007 0.382642
-0.246584 -0.036846 -0.092072
0.694320 -0.047991 -0.093510
0.639253 0.120778 -0.126315
-0.102739 -0.073432 0.472267
-0.085629 -0.014195 -0.121260
-0.277379 0.023949 -0.280801
-0.273057 0.034551 -0.213124
0.369442 -0.068526 0.483005
0.471258 0.062785 0.266488
-0.387418 -0.011735 -0.067993
-0.045498 0.062993 -0.079612
-0.583815 0.002306 -0.059170
0.538739 -0.062910 0.475217
-0.090050 -0.071641 0.055831
-0.568443 -0.082648 0.219562
-0.576078 0.075926 -0.068608
0.154683 -0.064155 0.047126
-0.467665 -0.015686 -0.070651
-0.077954 -0.068143 0.011963
-0.276007 0.050234 -0.264793
0.183583 0.081895 -0.143189
