0.383642 0.098762 0.407557
-0.023466 -0.049472 -0.423104
-0.364679 -0.071691 -0.068411
0.088137 -0.018066 0.233881
0.240408 0.029062 -0.309592
-0.231060 -0.009257 -0.005452
-0.289820 0.135799 0.321080
-0.100602 0.016629 -0.218349
0.856477 -0.041036 -0.434796
0.014872 -0.036840 0.417283
0.759062 -0.038778 -0.441785
-0.006132 0.065106 -0.262696
-0.359769 -0.069542 0.214533
0.067033 0.082907 -0.265140
-0.173164 -0.008966 -0.103697
0.389671 0.084827 0.231304
0.663503 -0.025591 0.237580
-0.235327 -0.028909 -0.063427
0.391143 -0.049180 -0.319758
-0.071316 -0.031026 -0.103616
-0.179239 -0.026082 -0.106419
0.380978 0.113411 0.420472
-0.573899 -0.073728 0.148547
-0.228031 0.104507 0.238862
-0.220051 -0.065129 0.145101
0.018719 0.034870 0.251284
0.019251 0.045862 0.254525
-0.667259 -0.074203 0.101847
-0.121118 -0.057188 0.235403
-0.250428 -0.016528 0.436474
-0.015289 -0.013236 0.266348
-0.225206 -0.063959 0.184074
0.044189 -0.025700 -0.321063
-0.043552 -0.064488 -0.135718
0.651769 0.060356 0.264033
0.917554 -0.049055 -0.238285
0.623195 0.094396 0.257477
-0.079478 -0.055731 -0.283296
-0.154532 -0.048805 -0.510594
0.058164 -0.051685 -0.333988
0.595106 0.038190 0.244338
-0.550096 -0.074552 -0.100014
-0.060418 -0.007020 -0.323074
0.002587 -0.048328 -0.493835
0.006062 0.039941 -0.321182
-0.087439 -0.038119 -0.265369
0.413745 0.141978 0.240227
0.629631 -0.045941 -0.408316
0.067903 -0.008321 0.235050
0.329803 0.090248 0.268623
0.383354 0.070574 0.335270
0.060875 0.132682 0.239452
0.040998 -0.031375 0.237840
-0.290441 0.100435 0.323214
0.027647 0.124469 0.237658
-0.287948 0.068180 0.320185
-0.047624 -0.056661 -0.271213
0.408617 -0.048356 -0.348012
0.385052 0.136886 0.396430
0.018712 0.001756 0.234464
0.217140 0.014098 -0.318881
-0.580089 -0.076101 -0.078751
-0.046466 0.005230 -0.323417
0.667436 0.121184 0.227872
0.090407 0.030943 0.238768
-0.020824 -0.052539 -0.342249
0.066001 0.106771 0.387366
-0.431456 -0.069183 0.070098
-0.228306 -0.034989 -0.098622
0.060432 0.095316 -0.271675
-0.287646 -0.044697 0.258973
0.377965 0.028840 0.411019
0.042419 0.039445 0.392889
-0.025292 -0.035505 0.431640
0.291280 0.051725 0.300785
0.273593 0.015294 0.354137
-0.014831 0.054698 -0.165351
-0.220255 -0.006538 0.241575
0.428635 0.088086 0.245639
0.068163 0.000386 0.235245
0.238897 -0.027964 -0.322309
0.047148 0.109486 0.234677
0.380137 0.036884 0.313071
-0.250808 0.099744 0.239461
-0.609880 -0.073885 -0.004654
-0.109964 -0.050739 -0.097101
-0.487501 -0.074898 -0.109044
0.632664 0.119188 0.249703
-0.019690 -0.032827 0.330005
-0.303592 -0.066175 0.303532
-0.617814 -0.073594 -0.031802
0.382582 0.092311 0.422556
-0.643126 -0.073714 0.113405
0.070459 0.080102 0.239032
0.644081 0.010847 0.235706
0.137897 0.088030 -0.228504
0.211199 0.088790 -0.296913
0.077923 0.131957 0.386208
-0.073907 0.054673 -0.001144
-0.240720 -0.053052 -0.511796
-0.106511 0.039108 -0.083411
0.467559 -0.043936 -0.523018
0.381302 -0.045855 -0.413318
-0.400263 -0.067429 0.422936
0.328217 0.074656 -0.304673
0.019306 0.107313 -0.249107
0.449332 0.150582 0.248615
-0.289386 0.052371 0.283805
-0.135828 -0.050140 -0.405926
0.003452 0.143191 0.250200
0.017460 0.063922 0.245442
-0.668988 -0.072788 -0.016389
-0.106173 -0.053695 -0.297078
-0.263924 -0.053061 -0.481056
-0.094970 -0.036108 -0.202167
-0.544903 -0.072975 0.253079
0.298124 0.142444 0.234147
-0.088073 -0.011944 -0.212456
-0.036298 -0.053146 -0.347866
-0.096182 0.013395 -0.260466
-0.130307 -0.052582 0.235166
-0.140271 -0.049377 0.234482
0.034038 -0.049857 -0.462484
0.427147 -0.048853 -0.313432
0.658231 0.052347 0.228245
-0.285845 -0.053311 0.257356
-0.381895 -0.074025 -0.075918
-0.288460 -0.056446 0.409825
0.255872 -0.045285 -0.515699
0.040662 0.124552 0.237304
-0.174867 0.064355 0.238822
0.628670 0.124101 0.253878
-0.157194 -0.052014 -0.364609
0.453789 0.071221 0.247006
0.070302 0.050128 0.232775
-0.116638 -0.028525 0.299777
-0.026492 -0.068523 -0.079597
0.642769 0.010488 0.226393
-0.281752 -0.058269 -0.297415
-0.285977 -0.030397 0.387920
-0.652359 -0.075313 0.003257
-0.112643 -0.053219 -0.368463
0.647568 -0.021910 0.236445
-0.662377 -0.075322 0.063684
-0.523865 -0.075762 -0.138745
0.638375 -0.001168 0.247385
-0.208782 -0.053140 -0.422403
-0.340162 -0.067428 0.366374
0.399121 0.028881 0.230710
-0.286373 0.043207 0.310181
-0.048435 -0.040797 0.236078
0.231850 0.026659 -0.309833
0.030733 0.007172 0.234464
0.407718 0.100694 0.234570
0.015927 0.038393 0.264885
0.327332 0.079344 0.248480
-0.289280 -0.042878 0.339061
-0.065079 -0.067682 -0.116001
-0.188054 -0.058374 -0.251993
0.040871 0.024400 0.382737
0.899420 -0.000282 0.307419
0.647771 0.055132 0.266343
-0.130084 -0.046896 -0.098285
-0.142464 -0.060455 -0.212309
-0.391226 -0.068352 0.388914
-0.515599 -0.071990 0.439911
-0.023993 -0.051590 -0.344711
-0.447985 -0.069672 0.157542
0.466369 0.081573 0.249354
-0.555121 -0.076321 -0.074783
0.572554 0.035055 0.243899
-0.288129 0.120392 0.364968
-0.200383 0.005350 -0.007972
0.337984 -0.047567 -0.477263
0.078875 0.048935 0.434790
0.390206 -0.047521 -0.370497
0.759669 -0.040261 -0.401208
-0.334313 -0.069984 -0.048461
0.624385 0.092281 0.308761
-0.127935 0.029929 -0.096393
-0.119007 -0.046630 0.235226
-0.561930 -0.075848 0.242945
-0.093634 0.016131 -0.256009
0.639316 0.148108 0.239786
-0.652243 -0.074137 0.137585
0.076863 0.087034 0.237671
0.086909 0.005602 0.233288
-0.429880 -0.067614 -0.196157
-0.077504 -0.036871 -0.301059
-0.057410 0.013417 -0.165626
0.425230 -0.048248 -0.343708
-0.106895 -0.021067 0.293944
-0.688323 -0.074464 -0.039536
0.328280 0.066450 0.260805
-0.090606 -0.049626 -0.455113
-0.378255 -0.062892 -0.232902
-0.428645 -0.070796 -0.150421
0.217918 0.041560 -0.309287
0.640519 -0.046052 -0.333900
0.311684 0.014564 -0.311897
-0.347014 -0.058482 -0.364747
0.028342 0.119317 0.240320
0.654848 0.073120 0.229427
-0.206370 -0.058197 -0.300670
0.700338 -0.007054 0.224178
-0.287170 -0.049835 0.265634
0.036071 -0.050003 -0.489534
0.033688 -0.049314 -0.485087
-0.646341 -0.078556 -0.086077
-0.281632 0.012127 0.342715
-0.134722 -0.035995 0.235970
0.013176 0.143044 0.239105
0.111675 -0.053002 -0.314527
-0.595187 -0.074212 0.298234
-0.383304 -0.068557 -0.180910
-0.020074 0.018337 0.283008
0.041184 0.042891 0.390974
0.224859 -0.052288 -0.303713
-0.090673 0.014898 -0.298239
-0.538718 -0.073262 0.060045
0.011807 0.119146 0.238930
0.416108 0.093907 0.240669
-0.233014 -0.021628 0.015612
0.166371 -0.047109 -0.443441
0.210484 -0.047580 -0.379935
0.575645 -0.044960 -0.432899
-0.025047 -0.059800 -0.227716
-0.288565 0.062358 0.289213
0.070002 0.070151 0.367767
-0.019161 -0.049645 -0.434921
0.066397 0.047400 0.235957
-0.691030 -0.073733 -0.029355
-0.256425 0.001719 0.239515
0.227093 -0.042465 -0.314935
0.017154 0.047786 0.247023
-0.195267 0.102112 0.240557
0.637189 0.100204 0.314128
-0.095487 0.002393 -0.103075
-0.220530 0.086443 0.243225
0.036391 0.085200 0.238712
-0.229060 -0.002967 -0.044641
-0.315480 -0.067607 0.054574
-0.369506 -0.067538 0.378568
0.589255 -0.046750 -0.359199
0.419007 -0.046813 -0.375739
-0.479867 -0.072008 0.388378
-0.062083 0.033365 -0.200021
-0.566532 -0.074433 0.206969
-0.674793 -0.076691 -0.076958
-0.380073 -0.070111 -0.064009
-0.282808 -0.071606 -0.087672
0.235194 0.013412 0.351824
-0.208383 -0.015310 0.239049
-0.205634 0.088176 0.241146
-0.382076 -0.068154 0.020910
0.055145 -0.050490 -0.333172
0.375159 0.078385 0.232161
-0.228047 -0.032606 0.237041
-0.686810 -0.079336 -0.102127
-0.077646 -0.021632 0.241435
0.059304 0.095684 0.404566
0.039759 0.043510 0.380512
0.025764 0.021957 0.237399
-0.089901 -0.000072 -0.180759
0.382255 0.095766 0.392537
-0.327669 -0.069470 0.135773
-0.286017 0.075797 0.245736
-0.096651 -0.067162 -0.070937
-0.278683 0.043822 0.239776
-0.287211 0.126931 0.329902
0.028387 -0.058618 -0.091083
-0.054667 0.009856 0.023875
-0.249885 -0.014916 0.422258
-0.073543 -0.033807 -0.307181
-0.301063 -0.064298 0.424614
0.206621 0.003249 0.302777
0.841642 -0.039810 -0.513166
0.292675 0.028721 0.291422
-0.196459 0.002515 -0.085026
-0.187904 -0.068032 -0.122852
0.385636 0.109441 0.405606
0.076291 -0.012487 0.234950
-0.283334 -0.067226 0.124478
-0.294432 0.140862 0.353568
-0.021388 -0.019146 0.269607
-0.304946 -0.066757 -0.179369
-0.179754 -0.013241 -0.105548
0.029514 -0.011505 0.421258
0.039291 -0.012263 0.300659
0.022239 -0.020017 0.277587
-0.032763 0.033950 -0.320370
-0.089453 0.000916 -0.208091
-0.016805 0.059134 -0.239013
0.408751 -0.044661 -0.534960
0.585224 0.091345 0.245783
-0.027418 -0.017089 -0.103848
0.521402 -0.043781 -0.373086
-0.212374 -0.001420 0.236026
0.661210 0.156436 0.229766
-0.230661 -0.048974 -0.006938
-0.462361 -0.072459 -0.133656
0.641328 0.082669 0.306103
-0.286787 0.063492 0.325936
0.250005 0.054379 -0.308227
-0.343870 -0.062454 -0.229470
0.076508 0.109474 0.380937
0.323496 0.073854 0.233903
-0.271444 -0.054337 -0.469551
-0.188166 -0.054130 -0.408339
-0.287481 0.075298 0.288347
-0.339541 -0.062902 -0.229896
0.379011 0.046884 0.422965
-0.288015 0.015075 0.297536
0.040770 -0.057939 -0.095245
-0.479155 -0.070569 -0.064946
0.638952 0.101325 0.255263
-0.247069 -0.065129 -0.185767
-0.601382 -0.075170 -0.064429
-0.276149 -0.032151 0.237592
-0.138812 -0.032676 -0.106312
0.228274 0.102676 -0.293286
-0.290434 -0.059078 0.380869
-0.426635 -0.069235 0.360184
0.347582 0.110398 0.234960
0.087809 0.096055 -0.232140
0.136690 0.013723 -0.313849
-0.069856 -0.049201 -0.443828
-0.018928 -0.003485 0.280298
-0.065225 0.026784 -0.313245
-0.074565 0.017772 -0.177631
-0.175041 -0.051851 -0.506575
-0.625668 -0.075609 0.274037
-0.327336 -0.069087 0.195657
0.325029 0.095575 0.248267
0.045372 0.078465 0.379531
0.382932 0.146298 0.355481
0.051197 0.112461 0.317546
0.641213 0.066550 0.233394
0.734962 0.106659 0.233922
0.695521 0.101083 0.227559
0.067740 0.061440 -0.298214
-0.519434 -0.072376 0.279026
0.650588 0.055736 0.228621
-0.026051 0.000021 0.281184
0.290366 0.042339 0.292679
-0.128627 -0.057282 -0.268234
0.018357 0.007209 0.232406
-0.188454 0.007711 -0.043624
-0.124626 -0.019460 -0.106062
0.011112 0.009421 -0.098197
-0.687895 -0.075158 0.304278
-0.084821 -0.005630 -0.177034
0.001018 0.103396 -0.270490
-0.083155 -0.009481 -0.259935
0.081775 0.029330 0.237278
-0.291894 0.140846 0.350193
0.208919 -0.029694 -0.323882
-0.236137 -0.024158 0.006128
-0.348277 -0.066248 0.399708
-0.430609 -0.069540 0.049430
-0.064659 0.043189 -0.242514
0.066164 0.111377 0.339557
-0.233830 -0.021034 -0.060362
0.211567 0.012969 0.302000
-0.628608 -0.074222 0.010261
-0.520500 -0.074671 -0.144083
-0.156730 -0.055755 -0.280024
-0.489917 -0.072610 0.239667
0.246797 0.014080 0.355133
0.067883 0.037897 -0.322440
-0.291728 -0.066262 0.239961
-0.554183 -0.073213 0.088905
0.032270 0.015706 0.234494
-0.289154 0.104809 0.251529
0.233327 0.098453 -0.295544
-0.128197 -0.023230 -0.106626
-0.207482 -0.057064 0.235491
-0.075182 -0.051570 -0.337485
0.280792 0.046549 0.303259
0.015503 0.103486 0.268465
-0.182491 -0.060167 -0.220046
0.383071 0.141171 0.307421
0.328381 0.103588 -0.291284
-0.055578 0.054831 -0.040991
-0.222913 -0.051083 -0.510425
0.629682 0.116639 0.249426
-0.266926 -0.040178 0.237612
0.422427 -0.049777 -0.314478
0.084512 0.056593 -0.297613
0.026145 0.034305 0.240313
0.459112 0.125709 0.248418
-0.451232 -0.069232 -0.188032
0.590778 0.016618 0.311729
-0.269281 -0.059447 -0.287332
-0.068515 0.141248 0.241013
-0.135653 -0.050920 -0.389517
-0.617713 -0.073341 0.177891
-0.375251 -0.074808 -0.097165
-0.228117 -0.065358 0.075518
-0.233384 -0.023328 0.012334
0.247418 0.002341 -0.322866
0.034752 -0.024885 0.362133
-0.380957 -0.061966 -0.246508
-0.003203 -0.044725 -0.328504
0.675293 0.008081 0.226939
0.100092 -0.047334 -0.509671
0.057977 -0.051953 -0.314519
-0.085491 -0.058389 -0.231226
0.639166 0.140120 0.245817
0.080588 0.088822 -0.280890
-0.289147 0.015331 0.288340
-0.622123 -0.073010 0.020752
-0.290559 0.051162 0.254358
-0.169077 -0.064510 -0.107332
-0.361265 -0.067575 0.373177
-0.287805 0.064858 0.294603
-0.429434 -0.069550 -0.049447
-0.198510 -0.055108 -0.359457
-0.167406 -0.029078 -0.104325
-0.300556 -0.055910 -0.388820
-0.266120 -0.055437 -0.358026
0.630076 0.096021 0.282547
0.166309 -0.046611 -0.428241
0.344724 0.020253 0.403668
-0.081273 0.028807 -0.291122
-0.287733 0.034028 0.287326
-0.126231 -0.038196 -0.102373
-0.247868 -0.056651 -0.299783
-0.091010 -0.039121 0.235997
-0.415189 -0.069388 -0.044255
0.383701 0.086550 0.378011
0.567785 -0.042834 -0.489117
-0.093889 -0.015506 -0.215210
0.384890 0.134129 0.398956
-0.224446 0.028048 0.237968
-0.216050 -0.056814 -0.085005
-0.606697 -0.074439 0.329508
-0.221682 0.058816 0.238231
-0.585308 -0.077201 -0.097513
0.060194 0.119507 0.238496
0.022519 0.119237 0.238774
-0.230132 -0.065832 0.157889
-0.291629 0.120285 0.343611
-0.477851 -0.071878 -0.036863
0.384821 0.073854 0.336654
-0.673206 -0.075561 0.014921
-0.058821 -0.034560 0.377492
0.144701 0.067893 -0.307437
-0.015239 0.025009 -0.322467
-0.173587 -0.044323 -0.101529
0.017626 0.135444 0.276052
0.278620 0.014224 0.348687
0.382585 0.150094 0.346281
-0.244696 -0.065005 0.088730
-0.020578 -0.011300 0.259109
-0.406932 -0.072580 -0.130472
0.636730 0.092042 0.261016
0.002598 0.039698 -0.316729
-0.075172 -0.065575 -0.104711
0.386134 0.133497 0.380269
0.057691 0.059558 0.235514
-0.292870 -0.062099 0.375773
-0.547964 -0.074378 0.203405
0.055416 0.104162 -0.310033
-0.289817 0.025222 0.282273
0.274714 0.037863 0.310239
0.381653 0.098086 0.394701
-0.176044 -0.053720 -0.322010
0.382104 -0.045858 -0.454100
-0.567552 -0.074504 0.070381
-0.252016 0.066585 0.238608
0.029754 0.110209 -0.306981
0.642882 0.089682 0.240025
0.637722 0.154888 0.240466
-0.300085 -0.069651 -0.150058
0.656112 -0.047041 -0.293492
-0.023811 -0.068544 -0.074590
0.290062 0.044105 -0.308780
-0.263612 -0.067067 0.182045
0.027489 -0.022955 0.233934
-0.289184 0.122920 0.334925
-0.093613 -0.048757 -0.458259
0.368894 0.076282 0.233208
0.082897 0.073754 -0.168010
0.014932 -0.066938 -0.092485
0.001822 0.142540 0.247501
0.009838 0.124368 0.244143
0.034592 0.038998 0.235770
-0.231710 -0.056984 -0.298058
0.063650 0.052446 0.233337
-0.290415 0.135269 0.309797
0.007748 0.141658 0.255078
-0.068973 -0.062212 0.213130
-0.336758 -0.067494 0.364895
-0.287226 -0.001625 0.279078
-0.289790 0.102196 0.274564
-0.202582 -0.057357 -0.305076
-0.270917 -0.033205 0.428002
0.410571 -0.044663 -0.443290
-0.514689 -0.073367 -0.026685
-0.257705 -0.066838 0.177731
-0.409928 -0.070097 0.205029
0.382851 0.098256 0.373383
-0.040734 -0.052343 -0.318942
-0.151117 0.016096 -0.013806
-0.032006 0.058269 -0.288587
0.036307 0.004816 0.325032
0.082887 0.077378 -0.181175
-0.095894 -0.022612 -0.294488
0.080906 0.067967 -0.205483
-0.386573 -0.067824 0.383656
-0.287224 0.046438 0.277275
-0.288079 -0.014866 0.261117
-0.281916 -0.067075 0.160792
0.273109 0.030859 0.303869
0.080853 0.081440 -0.198217
-0.212485 -0.059108 -0.010035
0.639909 0.054743 0.305800
0.002132 -0.054511 -0.291049
0.640687 0.072753 0.342899
-0.140754 -0.063084 0.234690
0.642849 0.022733 0.242200
-0.634397 -0.073929 0.115590
0.038224 0.045357 0.323904
-0.308713 -0.056138 -0.370419
-0.185139 -0.055247 -0.335054
-0.652093 -0.073929 -0.040080
0.018706 0.102376 -0.190251
-0.288237 0.059046 0.301182
-0.159094 -0.058720 -0.232951
-0.694702 -0.078267 -0.105650
0.325480 0.091573 0.243220
-0.014744 0.009977 0.268742
-0.459197 -0.074914 -0.088976
-0.413158 -0.067539 0.430489
-0.206742 -0.053394 -0.426175
0.601066 -0.049829 -0.298243
-0.584463 -0.073194 0.017644
-0.074609 0.141148 0.242918
-0.108842 -0.051512 -0.438193
-0.287556 -0.010846 0.328085
-0.260552 -0.036301 0.443820
0.038787 0.039750 0.307817
-0.289891 0.022697 0.258026
-0.176775 -0.051566 -0.513679
-0.180434 -0.064784 0.112034
-0.025424 -0.024004 0.287414
-0.236530 -0.022331 -0.002390
-0.249313 -0.066684 0.171409
0.383368 0.089944 0.354460
0.736569 0.120465 0.228545
-0.041019 0.049793 -0.224336
-0.289821 0.066550 0.324410
-0.288164 -0.042611 0.277731
-0.115366 -0.027656 0.308497
-0.166611 -0.063158 0.136787
0.063915 0.060838 -0.163488
-0.122657 -0.052723 -0.343500
0.587297 0.087816 0.246369
-0.232503 0.122063 0.241420
0.032188 0.101001 0.236373
0.072919 0.100175 -0.311370
0.371924 0.021272 0.439748
0.040498 0.080699 0.321238
0.386314 0.106773 0.324003
0.346034 0.062968 0.237579
0.595291 0.130087 0.251856
0.138755 -0.048179 -0.406481
-0.084795 0.010223 -0.182720
-0.287179 -0.017672 0.260854
0.643798 0.053058 0.243472
0.163382 0.057481 -0.307275
0.310824 0.138995 0.243296
0.384098 0.107731 0.339339
-0.116386 -0.031740 0.236712
0.023373 0.087803 0.238596
-0.095766 0.013789 -0.275349
0.044526 0.041123 0.441347
-0.178719 0.002018 -0.098247
-0.560784 -0.076146 -0.079644
0.006757 0.053114 -0.067979
-0.190188 -0.060282 -0.224279
-0.399179 -0.068550 0.391858
-0.013009 -0.009798 0.298529
-0.443250 -0.069923 0.016039
0.031624 -0.052122 -0.344467
-0.198528 -0.064068 0.037336
0.326311 0.062685 0.265519
-0.642996 -0.074273 0.040572
0.348736 -0.048183 -0.325033
0.208706 -0.004827 -0.324136
0.421015 -0.046934 -0.380759
-0.360537 -0.068328 -0.008497
-0.073866 0.030957 -0.306602
-0.137012 0.027741 0.253688
-0.041041 -0.039777 -0.100035
0.461992 0.085924 0.249158
0.769956 0.131617 0.228603
0.066275 0.044571 0.238280
0.266311 -0.045574 -0.306706
0.041009 -0.000126 -0.323799
-0.702375 -0.074988 0.423487
-0.088367 0.051793 -0.072609
0.047222 0.125433 0.240042
-0.140198 -0.055146 0.235277
0.683573 0.149214 0.230197
0.209114 -0.014419 -0.321114
-0.303818 -0.057674 -0.312604
-0.146779 -0.048774 0.235084
-0.103416 -0.017281 -0.247737
-0.224522 -0.016417 0.006270
-0.173514 -0.057702 -0.255745
0.079115 0.083269 -0.220135
-0.287121 -0.018526 0.265168
0.039147 -0.034081 0.441952
-0.521220 -0.072520 -0.000526
0.077071 0.062390 0.237149
0.359057 0.106029 0.235764
0.075082 0.087989 -0.172259
0.047543 0.107144 -0.217158
0.829776 0.133934 0.228642
0.091109 0.100639 0.235357
0.630642 0.083437 0.272516
0.643129 0.105503 0.271941
0.645220 0.013072 0.233064
0.602846 0.102478 0.245643
-0.005145 0.026549 -0.093943
0.383598 0.087646 0.398544
-0.241337 0.001583 0.238199
0.267188 -0.048663 -0.346712
-0.006735 0.030824 -0.093426
0.040458 0.001992 0.413003
0.018869 0.092185 -0.311087
0.709481 0.046146 0.226602
-0.318300 -0.073364 -0.072509
0.383398 0.151036 0.322519
0.385033 0.070294 0.369931
0.565472 -0.043726 -0.473633
0.042270 0.046944 0.370258
-0.231393 -0.008945 -0.050372
0.640069 0.094669 0.307393
-0.288263 0.132077 0.327592
0.001873 0.090716 -0.308159
0.634222 0.003091 0.257594
-0.296026 -0.059114 -0.293670
-0.019911 0.060072 -0.334571
-0.103406 0.020033 -0.281565
-0.287963 0.031181 0.277808
0.034669 -0.049972 -0.440378
-0.390062 -0.068754 0.050114
-0.154462 0.011355 -0.066557
0.642546 0.128456 0.234110
-0.065659 0.033855 -0.206643
-0.626869 -0.076835 -0.069173
-0.253757 -0.052623 -0.523863
0.792459 -0.045468 -0.285879
0.204001 -0.016088 -0.310585
0.512193 0.148093 0.248463
0.604837 -0.049309 -0.308028
-0.147752 -0.043095 -0.103670
0.400450 0.038445 0.227607
-0.281807 -0.052491 0.239006
0.025178 -0.055006 -0.096641
-0.235367 0.068900 0.239162
-0.104480 -0.016490 -0.258153
0.288102 0.030227 -0.309499
0.036124 0.093967 0.306170
-0.662203 -0.076930 -0.072962
-0.108401 -0.045596 -0.095199
-0.287833 0.114646 0.391296
0.036694 0.037756 0.382771
-0.445900 -0.069584 -0.163362
0.635879 0.067923 0.256269
0.383033 0.119654 0.390240
-0.217706 -0.062545 -0.010121
-0.290129 0.132422 0.266338
-0.590357 -0.073515 0.032745
-0.137982 -0.060385 0.235969
0.741821 -0.049114 -0.246736
0.183116 0.073008 -0.302755
0.323709 0.053686 -0.305738
-0.298060 -0.068841 -0.155698
0.075384 0.075728 -0.215909
-0.188341 -0.055845 -0.320772
-0.073583 -0.017828 0.249047
-0.276823 -0.065698 0.052093
-0.181969 -0.050408 -0.523390
-0.094298 -0.010111 -0.291783
-0.289320 0.133279 0.243345
0.378002 -0.044837 -0.468357
-0.288226 0.064352 0.306569
0.086687 0.082323 -0.315444
0.718630 0.112313 0.225516
-0.480739 -0.071455 0.432083
0.031358 -0.048928 -0.500204
0.074795 0.058257 -0.164144
-0.095665 0.010638 -0.232084
0.017972 0.012044 0.232030
0.342937 0.017554 0.207896
0.393115 0.106423 0.232661
-0.281702 0.069689 0.347662
0.084072 0.079782 -0.191520
0.381450 0.096173 0.321312
-0.000326 0.133164 0.238156
-0.064240 -0.039532 0.385993
0.383416 0.084755 0.311518
-0.231364 0.001158 0.239778
-0.125445 -0.063089 0.166053
-0.066137 -0.015665 0.405826
0.045741 0.045659 0.404487
0.555584 0.118280 0.245203
0.045713 0.080522 0.382565
-0.290384 0.101941 0.320291
-0.590700 -0.072150 -0.025322
-0.244655 -0.062478 -0.022690
0.012192 0.101104 -0.198758
-0.028177 -0.052812 -0.300277
0.280221 0.036710 0.298168
-0.209531 -0.067629 -0.132804
0.329329 0.061004 0.241638
-0.287070 0.039465 0.327148
0.868340 -0.043029 -0.336776
-0.227205 -0.021862 -0.080158
-0.166844 0.041022 0.241371
0.651211 -0.018259 0.226391
-0.606206 -0.075197 -0.068808
-0.465526 -0.070481 0.384292
0.179126 -0.053096 -0.290265
-0.141801 -0.033508 -0.103195
0.082721 0.063531 -0.303009
-0.116980 0.012117 -0.105279
0.029640 0.116713 0.240711
-0.150979 -0.057083 -0.265006
-0.597110 -0.073131 0.355652
0.381826 0.123105 0.418237
0.097847 0.104772 0.239526
0.460827 0.059796 0.246628
-0.076986 0.052548 -0.045338
0.040071 0.082238 0.240477
-0.259856 -0.018628 0.239421
-0.290219 0.138504 0.287232
-0.243880 0.083606 0.242902
-0.341783 -0.069785 0.145540
-0.628862 -0.073512 0.208735
-0.227014 -0.005680 0.007246
0.076977 0.042469 0.428569
-0.289498 -0.068046 0.006277
-0.330636 -0.071364 -0.135593
-0.238404 0.045847 0.243306
-0.449031 -0.071003 0.195117
-0.179212 -0.054277 -0.308658
0.004283 0.054310 -0.195811
-0.621344 -0.072632 0.360099
-0.080823 0.001157 -0.175672
-0.228021 -0.003163 -0.061872
0.330291 -0.045216 -0.528276
-0.366093 -0.064774 -0.212572
-0.363606 -0.068213 0.032906
0.038250 -0.000829 0.299058
-0.612371 -0.075454 -0.083784
-0.061444 0.140216 0.240984
-0.620583 -0.075821 0.275728
0.019465 0.030824 0.259875
-0.284927 -0.028091 0.342109
-0.286439 -0.053104 0.438451
-0.287386 -0.048100 0.313619
-0.250566 -0.014156 0.432780
0.049314 0.113643 0.240649
0.032563 -0.059045 -0.095615
0.051354 0.053155 0.233421
0.214995 0.000359 0.339210
0.651231 -0.048151 -0.310110
-0.150796 -0.010633 -0.105001
0.351110 0.132040 0.233408
0.639857 0.131778 0.249705
-0.040121 -0.022165 0.238266
0.640099 0.021177 0.230873
0.058901 0.081814 -0.167058
0.070459 0.112342 0.341965
0.743716 -0.031609 0.225827
-0.164756 -0.026561 -0.107238
0.044646 0.101014 0.356814
-0.676610 -0.075081 0.161320
0.036055 0.101159 0.367762
0.104690 0.106893 0.238381
0.002514 0.100960 -0.244755
0.018714 0.066091 0.236246
-0.015904 -0.032634 0.330822
-0.592146 -0.074244 0.326227
-0.338378 -0.057670 -0.322532
0.270803 0.040642 0.307044
-0.255348 -0.065741 -0.033284
-0.288204 0.060424 0.293315
0.163116 0.125085 0.237491
-0.055787 0.036669 0.256463
-0.249005 -0.019067 0.238772
0.037524 0.107700 -0.234575
-0.145671 -0.049376 -0.101876
0.080995 0.024874 0.233450
0.386583 0.112467 0.434079
-0.125323 -0.029006 -0.106357
0.428111 -0.048767 -0.304733
0.003386 0.098348 -0.232256
0.094193 0.085608 -0.152852
-0.095416 -0.062286 -0.174728
-0.288966 0.052152 0.268655
0.001036 -0.049854 -0.439221
0.048688 -0.014821 0.336515
0.154231 0.001714 -0.313800
-0.103856 -0.022254 -0.279260
0.226784 0.002221 -0.324291
0.027902 0.036023 -0.088561
-0.331602 -0.065834 0.445101
-0.573471 -0.073551 -0.051436
-0.285407 -0.057962 0.294367
-0.289173 -0.047878 0.363599
0.203103 -0.017867 -0.315023
-0.296211 -0.067008 0.242979
-0.037502 -0.050701 -0.427825
-0.043168 -0.031910 0.236024
-0.246606 -0.062878 -0.016504
0.723309 0.107512 0.228882
0.137808 -0.047771 -0.443077
0.319158 0.142605 0.251481
-0.427995 -0.070525 0.213503
-0.582543 -0.073563 0.291162
-0.230590 -0.010288 -0.064134
0.079509 -0.019626 0.234450
-0.238938 -0.064708 -0.053993
-0.124692 0.015348 -0.097861
0.559620 -0.042990 -0.527844
-0.245317 0.110630 0.240536
0.639599 0.043656 0.308410
0.578481 -0.045650 -0.389907
-0.357458 -0.066648 -0.194444
0.378227 0.030605 0.407813
-0.641199 -0.073081 0.362002
-0.206427 -0.053107 -0.440916
-0.057733 0.041999 -0.203184
0.135106 0.074105 -0.234059
-0.242352 0.071104 0.240651
0.325358 0.035674 0.261323
-0.385629 -0.069590 0.193255
-0.288776 -0.033106 0.292076
0.384502 0.062492 0.343390
-0.219496 0.123545 0.241001
-0.235244 -0.065726 0.123254
0.413478 -0.045450 -0.523836
-0.103051 -0.052820 -0.321494
0.621979 0.091400 0.304033
-0.048206 -0.057141 -0.260930
-0.540530 -0.073047 0.314414
-0.064777 -0.021749 -0.104662
-0.048680 -0.019544 -0.324948
0.052703 0.037008 0.390619
-0.236371 -0.014944 -0.044372
-0.094459 0.014594 -0.285559
0.062994 0.031732 0.235070
0.330352 0.091183 -0.301800
-0.288418 0.064084 0.312580
-0.241312 0.045632 0.239997
0.324645 0.065871 0.233002
-0.063015 -0.046864 -0.239061
-0.370460 -0.069042 0.123395
-0.214926 -0.059495 0.025293
-0.375261 -0.068422 0.340224
0.261773 -0.046605 -0.360747
-0.612430 -0.074478 0.299867
-0.559572 -0.075455 -0.065025
-0.384082 -0.069936 0.224832
-0.258853 -0.058056 -0.317374
-0.289221 0.137148 0.327763
0.640575 0.137915 0.235330
-0.248242 -0.057664 -0.288499
0.107942 -0.052167 -0.325620
0.629227 0.103374 0.290171
0.266556 -0.048958 -0.330158
0.103668 0.053553 -0.291906
-0.001929 0.025351 -0.094885
-0.309445 -0.057803 -0.354797
-0.290182 0.099744 0.243259
-0.041963 -0.023936 -0.324849
0.035801 0.000896 0.409076
-0.209464 -0.001592 -0.083978
0.016367 0.053856 0.249180
-0.501150 -0.073120 -0.131057
-0.090539 -0.012868 -0.218610
-0.251045 -0.066005 0.135420
0.472086 -0.045970 -0.400644
0.001644 0.103144 -0.301700
-0.064775 0.042976 -0.229780
0.373015 0.082247 0.231649
0.351742 -0.049860 -0.306670
0.037320 -0.063575 -0.101349
-0.645804 -0.073707 -0.041471
-0.108961 -0.043640 0.235437
-0.043166 -0.053225 -0.334624
-0.686442 -0.074443 -0.026558
0.014423 0.005021 -0.324501
0.893681 -0.046133 -0.283113
0.010032 -0.065304 -0.063806
0.028758 0.041589 0.236453
-0.018853 -0.022396 -0.322977
-0.103365 -0.024799 -0.246680
-0.287476 -0.057106 -0.296388
-0.284616 -0.065502 0.020004
0.038717 0.107796 -0.229163
-0.285939 -0.035087 0.362586
0.033922 0.107859 0.243006
0.040287 0.109444 0.234551
-0.018613 -0.049504 -0.455425
-0.037927 -0.034799 0.235747
-0.296975 -0.065301 0.334762
-0.288169 0.036851 0.277852
0.301407 0.140914 0.238407
0.383905 0.083280 0.421108
-0.217773 -0.054349 -0.362627
0.654821 -0.048346 -0.306412
0.750179 0.128785 0.227508
-0.004000 -0.046786 -0.323498
-0.065011 -0.013309 0.411338
-0.294669 -0.073637 -0.091684
0.685626 -0.035320 0.224251
0.682960 -0.040222 -0.449059
-0.181365 0.007334 -0.049136
0.382188 0.045383 0.332967
-0.281566 -0.061787 -0.254300
0.202211 0.030717 -0.309004
-0.137347 -0.048596 -0.534727
0.073723 0.031785 0.235135
0.305493 0.036307 0.240799
-0.241750 -0.053830 -0.432501
-0.164119 -0.049485 -0.456882
-0.339116 -0.056228 -0.336508
0.133092 0.074323 -0.217929
0.593895 -0.047779 -0.334912
0.044910 0.074286 0.238956
0.627640 0.135215 0.248695
-0.053051 0.024645 -0.316377
-0.287412 0.008403 0.257374
0.478555 0.082754 0.246341
-0.425092 -0.068398 -0.193377
-0.230014 0.107674 0.245788
-0.022493 0.060006 -0.324255
0.078546 0.073484 -0.228215
0.203666 -0.045544 -0.488492
0.401759 -0.050134 -0.318564
-0.412857 -0.073317 -0.120359
-0.290734 0.138070 0.273962
0.718520 0.058968 0.226146
0.005426 -0.049212 -0.448116
0.387473 0.055352 0.405849
0.086626 0.067484 -0.170916
-0.246015 -0.054959 -0.357415
-0.658403 -0.072527 -0.017790
0.055466 -0.049497 -0.362746
-0.286069 0.040180 0.305340
0.570099 -0.044128 -0.442245
0.066163 0.071604 0.238409
0.036520 -0.012160 0.320797
-0.093525 -0.023747 0.238284
-0.167411 -0.053683 -0.347627
0.634634 0.084578 0.339774
0.644771 0.051720 0.254098
-0.213060 -0.065551 -0.165038
-0.050019 0.035500 -0.169098
-0.151358 -0.017809 -0.105303
0.306661 0.132037 0.238120
-0.348776 -0.062392 -0.257904
-0.288196 0.110576 0.382845
0.062966 0.070544 -0.263561
-0.254002 -0.056463 -0.348592
-0.126887 0.007931 -0.098888
0.566314 0.152646 0.248136
-0.032590 0.046492 -0.317020
0.026329 0.108065 -0.290697
0.054537 -0.030435 -0.096633
0.682172 -0.042476 -0.535631
0.516719 -0.044152 -0.486757
0.588439 0.094776 0.247728
-0.000067 0.089923 -0.238924
0.641375 -0.022860 0.233783
0.248249 -0.036672 -0.322829
-0.247885 0.126722 0.242086
-0.345438 -0.069242 0.206741
-0.047281 0.049958 -0.234180
0.063347 0.078479 0.238733
-0.072390 -0.042400 0.403597
-0.275910 -0.054343 -0.432846
-0.020372 0.009869 0.269643
-0.658540 -0.076302 0.253410
-0.227869 0.111706 0.237752
-0.026472 0.055082 -0.054253
0.323110 0.126335 0.250818
-0.513982 -0.071505 0.156493
-0.463101 -0.069983 -0.152059
0.061986 0.089508 0.236680
0.382950 0.120377 0.444391
0.194703 0.006316 0.291818
0.260950 0.118111 -0.241375
-0.286015 0.001835 0.287924
0.638470 0.067105 0.247884
-0.348113 -0.067259 -0.169938
0.661864 -0.025995 0.224843
-0.186161 -0.059532 -0.235993
-0.073160 -0.067235 -0.072991
-0.580512 -0.073340 0.015878
0.028058 0.058677 -0.158842
-0.290467 0.021780 0.248780
0.465296 -0.044954 -0.445884
-0.286847 -0.000263 0.261987
0.534947 -0.047051 -0.341232
0.323247 0.056238 0.238421
-0.289872 0.028919 0.265214
-0.260211 -0.053529 -0.485735
-0.317669 -0.056640 -0.354118
-0.104442 -0.019842 -0.227805
-0.214332 0.132508 0.245342
-0.255777 0.107511 0.243856
-0.652190 -0.074382 0.420991
-0.058705 0.034926 -0.191120
0.055737 0.119493 0.238598
0.615791 0.123766 0.337311
0.079509 0.053746 0.423341
-0.289108 0.132618 0.285867
0.039996 -0.025799 -0.321192
-0.589843 -0.073588 -0.047252
-0.665527 -0.073255 0.112302
-0.066732 0.037361 -0.294057
-0.262499 -0.070447 -0.080517
0.084752 0.080402 -0.229435
-0.322932 -0.068817 -0.166864
-0.218757 0.032739 0.238808
0.631083 0.100880 0.277670
0.040826 -0.051800 -0.382801
0.706960 -0.046732 -0.319392
-0.287733 -0.015545 0.276465
-0.089546 -0.032855 -0.260259
-0.509227 -0.071003 0.078264
0.033062 -0.020681 0.231070
-0.521791 -0.071279 -0.045798
-0.463483 -0.071250 -0.137522
-0.275724 -0.063440 -0.208269
0.383427 0.143492 0.350194
0.563685 0.085220 0.245363
-0.286137 -0.055281 -0.377428
-0.581099 -0.072659 0.355807
-0.086481 -0.037861 -0.201667
0.927417 -0.051916 -0.217020
0.076275 0.089891 -0.276782
0.639629 0.018629 0.238619
-0.171003 -0.064604 0.103633
-0.287370 -0.014678 0.253447
0.045908 0.044958 0.385352
-0.049952 -0.007370 -0.103084
0.069725 0.010384 0.232856
0.304372 0.053175 0.293242
-0.509287 -0.072134 0.073816
-0.108886 0.038284 -0.079108
0.051399 -0.000131 -0.323931
-0.553943 -0.072677 0.405670
-0.123136 0.021639 -0.089905
-0.280368 -0.063502 -0.227242
-0.285524 0.103002 0.352372
0.031677 0.116586 0.236571
0.047590 0.024820 0.385359
-0.208428 -0.067758 -0.102563
-0.078965 0.024091 -0.201213
0.327352 0.057789 -0.310773
0.012751 0.099034 -0.303976
-0.289620 0.080700 0.302816
0.639456 0.133306 0.287179
-0.189599 -0.052385 -0.456464
-0.626469 -0.074893 -0.064866
-0.212179 -0.029747 0.237837
-0.029548 0.018873 -0.320922
-0.252258 -0.052630 -0.492641
-0.191102 -0.018244 -0.105554
0.265938 0.017212 -0.316138
-0.032902 -0.059300 -0.218726
0.067258 0.083977 -0.309303
0.655539 -0.012341 0.226567
-0.058155 -0.005023 -0.324097
0.716581 0.028248 0.223198
-0.204709 -0.052439 -0.454145
0.019945 -0.037449 -0.096184
-0.607196 -0.074016 -0.060653
0.384637 0.137294 0.343871
0.639173 0.059936 0.352872
-0.193101 -0.049641 0.235938
-0.088932 0.019430 -0.294851
-0.276259 0.121720 0.242107
-0.078852 -0.068125 -0.099866
0.767653 0.133584 0.228051
-0.288590 -0.040210 0.262237
0.057159 0.095575 0.367412
0.046045 -0.019237 0.233984
-0.037330 -0.048327 0.233646
-0.213380 -0.066085 0.040645
0.253727 0.113547 -0.238458
-0.282572 -0.064753 0.237218
0.335360 -0.047078 -0.413548
-0.209729 0.122234 0.239872
-0.223915 -0.006491 0.013720
0.333024 -0.045910 -0.428324
-0.252624 0.111705 0.237657
0.645966 0.057296 0.232464
0.384368 0.104924 0.385996
-0.067149 0.040787 -0.254375
-0.283883 -0.068196 0.102939
-0.250488 -0.008523 0.416451
0.618876 0.092601 0.330647
-0.196553 -0.002508 -0.096243
-0.117391 -0.025978 0.286035
-0.218135 -0.045424 0.236679
0.382761 0.152462 0.234832
0.638664 0.036002 0.330610
0.344517 -0.049600 -0.322950
-0.480572 -0.071892 -0.135873
0.017402 0.128350 0.268184
0.084232 0.058456 -0.301097
-0.288305 0.058058 0.264352
-0.224317 -0.069845 -0.101006
0.039814 0.008764 0.378072
-0.067221 -0.009207 -0.321189
-0.488856 -0.072313 0.125149
-0.021629 0.058804 -0.302606
0.028596 -0.065169 -0.071812
-0.253153 -0.053902 -0.431613
-0.208749 0.103760 0.238789
-0.457006 -0.070118 0.062321
-0.148192 -0.025065 -0.105921
0.087347 0.074194 -0.317329
0.042931 0.094685 0.236565
0.041182 0.051333 0.233366
0.016878 0.129226 0.263595
0.659231 -0.049108 -0.282625
0.384546 0.108944 0.350280
-0.241355 -0.026337 -0.029846
-0.091168 0.000809 -0.190146
-0.325214 -0.067327 0.058834
0.387049 0.037856 0.228562
0.381381 0.109344 0.341462
-0.229251 -0.044835 -0.001428
-0.043332 -0.050061 0.234239
-0.086611 0.125567 0.238540
-0.203420 0.005595 -0.015515
0.385159 0.070909 0.397529
0.009125 0.003091 -0.324044
-0.033553 -0.043097 -0.327288
0.919162 0.153110 0.230362
-0.616521 -0.073834 0.022346
0.466385 -0.043932 -0.508154
-0.242901 -0.055617 -0.395261
-0.288906 0.105146 0.299586
0.016247 0.097022 -0.310539
-0.200377 -0.049491 0.236811
-0.609328 -0.074434 0.155310
0.853745 -0.041217 -0.447651
0.109209 -0.051379 -0.334933
-0.387301 -0.069049 -0.017600
0.017117 -0.060813 -0.091155
0.102334 0.035307 0.236889
-0.251684 -0.009030 0.421618
-0.290231 0.135892 0.296350
-0.624176 -0.073780 0.036615
-0.212723 -0.052888 -0.403731
-0.460796 -0.071740 0.230519
0.662438 -0.031848 0.223996
-0.279258 -0.053744 -0.421283
-0.341515 -0.059060 -0.366659
0.376230 -0.043604 -0.532099
-0.289075 0.102131 0.331242
0.022334 0.016480 0.233203
0.018532 -0.018098 -0.322981
0.547937 0.116261 0.244470
-0.289332 -0.040775 0.330225
0.018576 0.028292 0.234569
0.075493 0.080786 -0.260838
0.117036 0.024738 -0.315193
0.075809 0.035084 0.236075
-0.188229 -0.046713 -0.101364
0.097282 0.047237 0.237861
-0.578280 -0.075045 0.074203
0.006712 -0.049128 -0.479818
0.691952 0.118488 0.228920
0.004166 -0.050975 -0.365230
0.131670 0.074037 -0.215332
0.090265 0.086763 0.236886
-0.373627 -0.074169 -0.082313
-0.217623 -0.065367 -0.081325
0.636914 0.101340 0.241851
0.555858 -0.051177 -0.287653
0.329962 0.067932 0.233276
-0.082492 0.010860 -0.297977
-0.211817 0.001128 0.011772
-0.195408 -0.055163 -0.350536
0.157065 -0.044919 -0.511571
0.718663 -0.047705 -0.299273
0.384763 0.145143 0.438399
-0.224776 0.107465 0.246053
-0.147726 -0.024459 -0.099221
0.758565 -0.040721 -0.426145
0.483199 0.048910 0.244560
-0.489769 -0.071928 0.435275
-0.025906 0.001140 -0.102351
-0.041833 -0.050731 -0.392704
-0.389206 -0.068004 0.046125
-0.285883 -0.031701 0.362951
0.019427 0.069825 0.246987
-0.690739 -0.074972 0.272208
-0.288502 0.122125 0.359548
-0.374714 -0.071096 -0.066957
0.041774 0.038342 0.364646
0.062860 0.098908 0.366231
0.076037 -0.009400 0.235468
-0.068056 0.095732 0.237676
-0.050579 0.036328 -0.312837
-0.178983 -0.058872 -0.235341
-0.233776 -0.011901 -0.034295
0.065924 -0.028187 -0.319438
-0.138988 -0.039957 -0.097769
-0.617749 -0.074011 0.415202
0.155199 0.011001 -0.314055
-0.226220 -0.024502 -0.084068
0.404909 0.114447 0.230866
-0.256285 -0.051983 -0.534361
-0.410818 -0.074534 -0.071724
0.040588 -0.009982 0.306597
0.366036 0.064496 0.234366
-0.525316 -0.073144 0.136990
0.574398 0.085834 0.245819
0.054422 0.079564 0.238303
0.036902 0.051505 0.233545
0.549860 -0.049186 -0.293174
-0.287657 0.016060 0.272189
0.397552 0.040127 0.228172
0.643988 -0.047717 -0.301194
-0.084748 -0.025394 -0.313428
0.618925 0.134842 0.248618
0.078689 0.124981 0.236191
0.023548 -0.065305 -0.064114
-0.011797 0.047883 0.295237
0.079794 0.064690 -0.222760
-0.290643 0.048764 0.293150
0.381009 0.119521 0.412192
-0.014610 -0.068229 -0.104531
0.060811 -0.019053 -0.096317
-0.196989 -0.063306 0.159988
-0.120013 0.003292 -0.100399
-0.265309 -0.007996 0.242157
-0.091499 -0.033126 -0.226643
-0.480580 -0.074464 -0.108814
0.047970 0.020266 0.413943
-0.007964 0.064241 -0.251375
0.022564 -0.008976 -0.323283
-0.047096 -0.065278 -0.130572
0.044010 0.063078 0.334176
-0.164572 -0.062242 0.127747
0.077166 0.069421 -0.212404
0.024993 -0.010463 -0.101889
0.034257 0.112531 0.233613
0.037441 -0.033250 0.369102
-0.229467 -0.047043 -0.004574
-0.525489 -0.074322 -0.108816
-0.044893 -0.052214 -0.361854
0.099835 0.025099 0.235875
0.042946 0.084073 0.375805
-0.174692 -0.066802 -0.074060
0.690411 -0.042995 -0.405963
0.369587 -0.044503 -0.533079
0.621361 0.078532 0.285288
0.652634 -0.047524 -0.298546
0.577373 0.085132 0.245618
0.585404 0.132714 0.249544
-0.225939 0.136572 0.242048
-0.090781 -0.049886 -0.440469
-0.033928 -0.050739 -0.429269
-0.189372 -0.002846 0.252556
-0.307041 -0.068660 0.220066
0.070149 0.006798 0.232943
0.384372 0.144694 0.445363
0.485484 0.077335 0.246676
-0.076813 -0.066755 -0.068840
-0.286387 0.000620 0.333686
-0.135265 -0.043373 -0.099006
0.015577 0.039509 0.243386
0.078339 0.133793 0.416648
0.072344 0.031912 0.239542
-0.123628 -0.033042 0.314948
-0.078320 0.025122 -0.207593
-0.090826 -0.043677 -0.099840
-0.011406 -0.067113 -0.060004
0.383876 0.060442 0.441221
-0.179685 -0.058083 -0.244359
0.077223 0.074155 -0.214302
-0.096406 -0.016826 -0.210136
0.035048 0.097316 0.307150
-0.232547 -0.005400 -0.047544
-0.208003 0.070421 0.237562
-0.287160 -0.047510 0.260195
-0.351285 -0.068345 -0.158105
-0.078354 -0.007119 -0.104996
-0.082588 -0.031682 -0.294476
0.272131 0.048889 0.307535
-0.129390 -0.032104 0.307719
0.014615 0.116152 0.271407
-0.075689 -0.038345 0.235922
0.615605 -0.051692 -0.285560
-0.215027 -0.011238 0.241191
0.051126 0.032407 0.396040
-0.092935 0.002409 -0.205214
0.039892 -0.050838 -0.317454
-0.146229 -0.065947 -0.162986
0.389629 0.033006 0.229387
-0.288611 0.063147 0.272151
0.654261 0.136638 0.231093
-0.206543 -0.057248 -0.312028
-0.288009 -0.045225 0.286793
0.067264 0.085154 -0.262934
0.260598 -0.040215 -0.322413
0.905011 0.016082 0.273211
0.076363 0.066205 0.435638
0.212274 0.003009 0.300840
0.225614 0.016954 -0.309167
-0.110511 -0.040367 -0.102955
0.040596 0.019372 0.378454
0.888379 0.012473 0.300755
0.616686 0.098981 0.262045
-0.197083 -0.000456 0.238141
-0.018466 -0.050344 -0.445352
0.059075 0.094532 -0.307255
0.079445 0.105752 0.240457
-0.434067 -0.068777 0.402759
-0.289452 0.139873 0.331079
0.622936 0.087643 0.263040
-0.308099 -0.061703 -0.235274
-0.232019 -0.011748 -0.045551
-0.086243 -0.006302 -0.313559
0.138395 -0.050038 -0.341669
-0.214339 -0.062218 -0.005521
-0.287225 0.008605 0.324224
-0.443158 -0.071293 0.000544
0.601882 -0.047047 -0.334594
-0.508331 -0.076177 -0.091682
-0.689663 -0.074374 0.214396
0.097328 0.077665 -0.205199
0.633279 0.076551 0.276105
0.649159 0.069654 0.230374
0.749239 -0.013960 0.232931
0.684712 -0.048616 0.225021
-0.112325 -0.042247 -0.096666
0.064037 0.057510 0.360883
-0.016360 0.027265 0.283220
0.350790 0.110319 0.231230
-0.024304 0.054699 -0.058460
0.741538 0.134836 0.228310
-0.071600 -0.011015 -0.105735
0.386665 0.134992 0.437911
-0.061238 0.018447 -0.314420
0.096946 -0.002906 -0.323224
0.719772 -0.010208 0.227866
0.372250 0.132520 0.232472
-0.009837 0.058750 -0.166499
-0.290091 0.083131 0.312128
0.217837 -0.039567 -0.311379
0.067214 0.072861 -0.259731
-0.013443 -0.058243 -0.204794
-0.078525 -0.038451 -0.245499
-0.087252 -0.025747 0.235630
-0.115817 0.037213 0.006111
-0.286873 -0.006554 0.270888
-0.144418 -0.060203 0.235855
-0.607477 -0.073134 0.360835
0.333610 -0.046138 -0.482262
-0.218755 -0.060965 -0.025769
-0.037602 -0.024706 -0.325812
0.700124 0.050837 0.227901
-0.330454 -0.068587 -0.024857
-0.202175 -0.063950 -0.171558
-0.503156 -0.073896 -0.119066
0.017024 -0.026597 0.237322
0.719977 0.010409 0.225531
-0.067643 0.036861 -0.297575
-0.177918 -0.063053 0.141049
-0.224138 -0.065390 0.148766
0.016821 0.092817 0.250188
-0.289217 0.096816 0.257076
-0.034704 -0.059078 -0.211974
-0.016965 0.052414 -0.315914
-0.654019 -0.074402 -0.053145
0.458363 0.065538 0.246057
0.383883 0.063797 0.357691
0.710832 0.112918 0.226870
0.328050 0.058100 0.256800
0.025340 0.009707 0.235428
-0.104969 -0.061034 -0.078160
-0.026770 -0.053224 -0.308408
-0.209808 -0.052110 -0.438756
0.005590 0.023372 -0.322503
0.401749 -0.049569 -0.298315
0.385712 0.134859 0.433429
0.252630 -0.044455 -0.523679
0.459787 0.123100 0.247341
-0.423538 -0.070325 -0.005772
-0.230402 -0.012809 -0.042918
0.179617 0.126633 0.239684
-0.585857 -0.076086 0.250769
0.087844 0.097831 -0.271769
0.660628 -0.048474 -0.286820
0.073892 0.124892 0.236201
0.089198 0.079378 -0.207618
-0.257106 -0.053044 -0.421949
0.075867 -0.015523 -0.321477
-0.062095 -0.045758 0.234608
0.011123 0.040207 0.234143
-0.287201 -0.020636 0.252319
0.917931 0.156294 0.231107
-0.058026 -0.062929 -0.099334
0.019015 0.025987 0.266963
0.049914 0.001758 0.235342
-0.079908 -0.058874 0.231635
0.166471 -0.000197 -0.311411
-0.227867 0.028029 0.235893
0.349467 0.064202 0.232504
-0.263558 -0.058020 -0.295920
-0.159661 0.006756 0.239351
-0.291838 -0.066418 -0.024722
-0.061233 -0.065540 -0.082198
0.026782 0.043509 0.239920
0.326146 0.102328 -0.301178
0.056367 0.096196 -0.268598
-0.001789 0.065059 -0.256894
-0.289340 0.096376 0.318850
-0.428104 -0.067280 -0.186243
0.375653 -0.044132 -0.510509
0.016598 0.016904 0.231835
-0.224925 0.134149 0.240684
-0.027475 -0.019416 -0.324025
-0.253814 -0.001907 0.240434
-0.196361 -0.055718 -0.306544
0.217088 0.001283 -0.312613
-0.007074 0.043182 -0.086378
-0.055222 0.029728 0.257461
-0.067464 -0.053423 -0.342775
-0.230824 -0.013670 -0.068004
0.364672 0.085042 0.232776
0.070164 0.102326 0.417685
0.005561 -0.068806 -0.071315
-0.076076 -0.057027 -0.263577
0.252938 -0.022904 -0.322798
0.040593 0.024008 -0.323092
-0.388700 -0.071638 -0.069445
0.644304 -0.001237 0.229136
-0.015481 0.062058 -0.294047
-0.589501 -0.076600 -0.075667
0.074089 -0.002087 -0.095605
-0.159390 -0.051419 -0.420819
-0.683648 -0.073406 -0.041696
-0.141600 0.018269 0.001778
-0.286866 0.065612 0.323410
-0.107202 -0.038767 -0.104179
0.032999 -0.049283 -0.514333
0.684353 0.080809 0.228169
0.387315 -0.046927 -0.383971
-0.622777 -0.076553 -0.075064
-0.200141 -0.066667 -0.150693
-0.398416 -0.069279 -0.052000
0.226050 -0.042479 -0.326143
-0.590382 -0.074044 0.151855
-0.199084 0.006978 -0.033024
-0.060839 0.055620 -0.030153
0.699631 0.151477 0.229897
-0.288203 0.072956 0.298360
0.621758 -0.040705 -0.477109
0.638980 0.068312 0.251457
0.383386 -0.046217 -0.409333
-0.536410 -0.075233 -0.126711
0.309443 0.029144 -0.311376
-0.182708 -0.057631 -0.255539
-0.079722 -0.035167 0.236186
-0.346875 -0.060072 -0.301193
-0.066350 -0.052195 -0.375410
0.317035 0.146695 0.250761
0.327513 0.043688 0.263056
0.013395 0.099712 -0.192470
-0.091920 -0.009532 -0.194625
-0.073515 0.051697 -0.055159
-0.113986 -0.049377 -0.485250
0.052218 0.047629 0.390999
0.072099 0.021298 0.234548
0.064732 0.076621 -0.272688
0.576190 -0.045474 -0.421075
-0.101977 -0.054410 -0.300088
0.637730 0.121104 0.314065
-0.386206 -0.074035 -0.077905
-0.000064 0.073184 -0.170546
0.638538 0.063092 0.256821
-0.232760 -0.054467 -0.392865
0.531911 -0.046394 -0.351802
-0.372332 -0.072201 -0.141849
0.409479 0.141052 0.235911
-0.012577 0.015818 0.269620
0.362593 0.022171 0.442085
0.030428 -0.048666 -0.495550
-0.287827 0.123088 0.344884
-0.432015 -0.073118 -0.111973
-0.286903 -0.053300 0.244609
0.221409 0.005671 -0.322376
0.139669 0.035725 -0.313390
0.072456 0.004832 0.233098
-0.103376 -0.025344 -0.227214
-0.514800 -0.072231 0.188021
-0.261048 -0.053597 -0.495997
0.890211 0.025434 0.302793
-0.202040 -0.000078 0.234588
-0.100980 0.130977 0.238811
0.350152 0.039569 0.229493
0.035883 0.137053 0.236611
-0.286353 -0.023163 0.277042
0.079839 0.057687 0.428638
0.636234 0.101191 0.235448
-0.164131 -0.034969 -0.097772
0.628100 0.099133 0.252314
-0.058408 0.139393 0.241205
-0.015698 0.056199 -0.335904
0.724766 -0.016264 0.228632
0.589929 0.097832 0.258785
0.305601 0.036360 -0.309568
0.649115 0.140044 0.231350
0.385010 0.134406 0.345592
0.340386 0.058089 0.235842
-0.217293 -0.068334 -0.136530
-0.126138 -0.042101 0.236450
-0.010463 -0.063434 -0.147286
-0.192186 -0.027764 0.236311
0.585988 -0.047371 -0.339117
-0.204852 -0.061020 -0.206960
-0.287044 -0.000561 0.270367
-0.669416 -0.073847 0.420888
0.405677 -0.044123 -0.441054
0.153759 0.004633 -0.313100
-0.286713 -0.050581 0.279275
-0.087187 -0.033329 -0.266563
-0.075588 -0.035482 -0.102869
0.071766 0.052859 -0.166694
-0.567413 -0.076092 -0.115592
-0.034488 -0.037914 -0.324121
0.755130 -0.039240 -0.423752
0.742480 -0.009342 0.231782
-0.559798 -0.075700 -0.076054
0.658412 -0.010212 0.251834
0.250333 0.104584 -0.295118
-0.237624 -0.064117 -0.197448
0.022192 0.131204 0.240631
0.721590 0.105490 0.225809
0.113905 0.079703 -0.287436
-0.340441 -0.072302 -0.122903
0.079487 0.064512 -0.242236
-0.195933 -0.052817 -0.104404
-0.288073 0.001406 0.253927
0.640949 0.126978 0.268991
-0.418031 -0.069961 0.030703
0.081748 0.085066 -0.195159
-0.208861 -0.059625 0.012330
-0.494840 -0.072321 0.030434
0.629859 0.083943 0.247930
-0.012030 0.133308 0.237968
0.902059 -0.047589 -0.269674
0.077956 0.071501 -0.183637
-0.220689 -0.063432 -0.007078
0.053839 -0.013875 0.235036
0.221528 -0.011283 0.341024
-0.051389 -0.065723 -0.116358
0.050875 0.013161 0.388473
-0.048383 -0.002551 -0.323601
-0.289276 -0.031075 0.256674
-0.234296 -0.049883 -0.069432
0.382667 0.150309 0.402767
-0.036562 -0.052953 -0.343300
-0.616657 -0.072489 0.359003
-0.633608 -0.078454 -0.096671
-0.287513 -0.000652 0.256402
-0.649272 -0.075383 0.002719
-0.470129 -0.071894 -0.037655
-0.324047 -0.056934 -0.335151
0.613372 0.119812 0.341421
-0.287926 -0.060828 0.351041
-0.143101 0.007395 -0.096645
-0.177341 -0.064736 -0.162128
0.057308 0.064472 0.236807
0.052801 0.022246 0.396002
-0.164418 -0.001812 -0.102746
0.063192 0.092774 -0.265603
0.315968 0.011111 -0.309214
-0.171187 -0.068722 -0.109667
-0.436128 -0.070123 -0.167965
-0.195953 -0.052034 -0.418243
-0.011908 -0.029589 -0.324606
-0.083738 0.098641 0.238091
-0.292583 0.137595 0.317275
0.253348 0.015299 -0.318081
0.080404 0.062969 -0.190593
0.385092 0.135953 0.390808
0.635280 0.016861 0.285066
0.228276 -0.036057 -0.324325
-0.287035 0.047702 0.243472
-0.287489 0.010702 0.277937
-0.005529 0.022789 -0.322904
-0.020564 0.031407 -0.092259
0.042168 0.105579 0.327726
0.206778 -0.018389 -0.317057
0.377013 0.045079 0.357753
-0.231733 -0.048871 -0.040396
-0.106016 -0.055474 -0.277324
-0.212054 0.046082 0.242684
-0.500210 -0.071964 0.155300
0.031844 0.140850 0.238719
0.101063 0.027980 0.238925
0.364578 0.035084 0.229597
0.020112 0.046535 0.239195
0.094413 0.009372 0.232082
0.025050 0.073983 -0.316879
0.271640 -0.050472 -0.288352
-0.624271 -0.074715 0.103584
0.599531 0.073304 0.249118
-0.037608 -0.006357 -0.103346
0.322684 0.109223 0.256644
-0.566437 -0.072990 0.172158
0.648887 0.075675 0.230458
-0.090828 -0.031878 -0.254764
-0.358273 -0.063964 -0.237807
-0.059265 -0.061972 -0.186309
0.102832 0.039899 0.235058
-0.211918 -0.011544 0.241060
0.252405 0.068547 -0.303660
0.044578 0.129372 0.240841
-0.283182 -0.023661 0.239502
-0.287044 -0.038449 0.406933
-0.069197 -0.049029 -0.454857
0.259613 0.124135 -0.227242
-0.476727 -0.072726 -0.128996
0.036044 -0.017187 0.375490
-0.110013 0.040066 -0.091616
-0.034685 -0.051112 -0.440434
0.636606 -0.044842 -0.376881
0.663567 0.065889 0.228516
-0.089625 -0.030646 0.304464
0.608210 -0.043427 -0.502902
0.029361 -0.014730 0.426347
-0.285185 -0.063954 -0.194244
0.338517 0.098891 0.275286
-0.088147 -0.008154 -0.275371
0.014419 -0.066312 -0.084472
-0.401561 -0.063956 -0.235308
0.385474 0.103715 0.435465
-0.336050 -0.057819 -0.360904
0.081455 0.065918 -0.225025
0.076797 0.110034 0.387492
-0.401445 -0.073149 -0.130505
-0.289461 0.082941 0.322334
-0.424303 -0.070837 -0.153608
-0.090174 -0.033172 -0.265123
0.329106 0.056890 0.245040
-0.104983 0.122318 0.237215
-0.160631 -0.053970 -0.102053
0.631917 0.097568 0.284649
-0.211681 -0.065001 0.034402
-0.019636 0.029166 -0.143747
0.382188 0.150641 0.413685
-0.082052 -0.042859 -0.101196
0.518426 -0.043756 -0.424395
0.816119 -0.048348 -0.233578
0.431138 0.093863 0.246880
0.045973 0.108176 0.329844
-0.173140 -0.051636 -0.501469
0.074839 0.061796 -0.229041
-0.264551 -0.052882 -0.507840
0.462135 -0.044392 -0.463621
0.065753 0.119581 0.239446
0.036976 0.047987 0.317807
