-8.140000281855463982e-04 4.749200120568275452e-02 -1.100009977817535400e-01
-1.914899982511997223e-02 -1.324000023305416107e-02 -4.101789891719818115e-01
4.143400117754936218e-02 -9.898999705910682678e-03 5.628700181841850281e-02
7.938499748706817627e-02 1.171000022441148758e-02 1.881000027060508728e-02
-1.933299936354160309e-02 8.660000166855752468e-04 1.968459933996200562e-01
5.307999905198812485e-03 -1.541899982839822769e-02 5.286000203341245651e-03
1.392399985343217850e-02 -1.559200044721364975e-02 -3.195680081844329834e-01
2.582100033760070801e-02 -1.415400020778179169e-02 -6.374999880790710449e-02
-3.798599913716316223e-02 1.490000053308904171e-03 -2.102600038051605225e-02
-2.260199934244155884e-02 -3.190800175070762634e-02 1.218490004539489746e-01
-1.792600005865097046e-02 -2.340199984610080719e-02 8.637399971485137939e-02
8.131600171327590942e-02 2.375799976289272308e-02 1.369570046663284302e-01
1.629200018942356110e-02 -2.087200060486793518e-02 -1.424749940633773804e-01
6.716100126504898071e-02 -2.005299925804138184e-02 1.993319988250732422e-01
2.419799938797950745e-02 2.409799955785274506e-02 -2.036959975957870483e-01
7.088500261306762695e-02 -3.953999839723110199e-03 8.573000319302082062e-03
-8.899399638175964355e-02 -3.685999894514679909e-03 1.177510023117065430e-01
-1.413870006799697876e-01 -3.969999961555004120e-03 1.390179991722106934e-01
-4.093499854207038879e-02 -2.174099907279014587e-02 1.997330039739608765e-01
-2.028799988329410553e-02 4.133999813348054886e-03 -3.967759907245635986e-01
-3.112399950623512268e-02 1.767599955201148987e-02 -6.740000098943710327e-04
1.496990025043487549e-01 -4.827999975532293320e-03 2.518349885940551758e-01
4.115699976682662964e-02 -5.060400068759918213e-02 -5.209000036120414734e-02
-1.788150072097778320e-01 -2.494999906048178673e-03 6.096899881958961487e-02
-3.644400089979171753e-02 -4.521499946713447571e-02 6.102700158953666687e-02
-2.985100075602531433e-02 -1.236299984157085419e-02 1.760620027780532837e-01
7.882799953222274780e-02 6.378000136464834213e-03 -6.273300200700759888e-02
4.752499982714653015e-02 -1.210000016726553440e-03 -4.994099959731101990e-02
7.183600217103958130e-02 1.060300040990114212e-02 -9.848800301551818848e-02
-2.108000032603740692e-02 -2.905900031328201294e-02 1.346579939126968384e-01
1.621799916028976440e-02 1.947999931871891022e-02 -3.544870018959045410e-01
8.078599721193313599e-02 4.978999961167573929e-03 -3.882399946451187134e-02
-4.903199896216392517e-02 -1.975299976766109467e-02 -7.418800145387649536e-02
5.437299981713294983e-02 -4.232000093907117844e-03 3.649000078439712524e-03
-6.464099884033203125e-02 -2.364000072702765465e-03 2.577610015869140625e-01
2.859400026500225067e-02 -1.051099970936775208e-02 -1.446090042591094971e-01
-2.354899980127811432e-02 1.013499964028596878e-02 1.319289952516555786e-01
1.649699918925762177e-02 -2.276000007987022400e-02 -1.296010017395019531e-01
-5.020499974489212036e-02 2.880000101868063211e-04 2.208880037069320679e-01
6.347700208425521851e-02 -2.973599918186664581e-02 1.508760005235671997e-01
1.185389980673789978e-01 2.945000072941184044e-03 -3.755600005388259888e-02
-1.285799965262413025e-02 -1.324999984353780746e-02 8.099500089883804321e-02
1.466089934110641479e-01 -3.491000039502978325e-03 9.019199758768081665e-02
2.089889943599700928e-01 -6.290000164881348610e-04 3.876100108027458191e-02
-5.119699984788894653e-02 -1.512200012803077698e-02 -4.050699993968009949e-02
2.936000004410743713e-02 1.572000049054622650e-02 -1.621160060167312622e-01
1.301799993962049484e-02 3.847000002861022949e-02 -8.493799716234207153e-02
-5.406000092625617981e-02 6.513000000268220901e-03 2.703190147876739502e-01
1.149659976363182068e-01 -1.776099950075149536e-02 -8.010900020599365234e-02
3.895699977874755859e-02 -4.929000139236450195e-02 -1.144559979438781738e-01
4.702199995517730713e-02 -4.493600130081176758e-02 6.388100236654281616e-02
1.562529951333999634e-01 -2.193699963390827179e-02 8.449699729681015015e-02
1.914449930191040039e-01 -2.531800046563148499e-02 3.823500126600265503e-02
1.118670031428337097e-01 -4.007999785244464874e-03 2.987279891967773438e-01
2.726699970662593842e-02 8.386000059545040131e-03 2.120400071144104004e-01
-4.621000029146671295e-03 5.758000165224075317e-02 -1.972949951887130737e-01
4.844500124454498291e-02 -2.320200018584728241e-02 -8.485800027847290039e-02
-1.074760034680366516e-01 3.922999836504459381e-03 -3.448500111699104309e-02
2.214100025594234467e-02 2.234000014141201973e-03 -3.861890137195587158e-01
2.671799995005130768e-02 -1.486000022850930691e-03 -3.722599893808364868e-02
5.570499971508979797e-02 1.392600033432245255e-02 -2.394800074398517609e-02
1.548060029745101929e-01 -2.560400031507015228e-02 4.697100073099136353e-02
1.253299973905086517e-02 5.621799826622009277e-02 -2.431489974260330200e-01
-9.871000424027442932e-03 -1.393999997526407242e-02 -3.998700156807899475e-02
-2.209799923002719879e-02 1.389299985021352768e-02 -3.458330035209655762e-01
1.461910009384155273e-01 -5.301000084728002548e-03 2.639780044555664062e-01
-8.240900188684463501e-02 2.403499931097030640e-02 1.387680023908615112e-01
-3.304100036621093750e-02 9.650999680161476135e-03 2.208880037069320679e-01
1.102100014686584473e-01 -3.250399976968765259e-02 6.555700302124023438e-02
-1.510059982538223267e-01 1.214000047184526920e-03 -1.506500039249658585e-02
1.123239994049072266e-01 2.277000108733773232e-03 3.771699965000152588e-02
5.155500024557113647e-02 -3.636800125241279602e-02 2.313559949398040771e-01
1.290719956159591675e-01 3.309000050649046898e-03 -2.908000024035573006e-03
4.431999847292900085e-02 -3.415999934077262878e-02 1.000450029969215393e-01
-8.616500347852706909e-02 5.250800028443336487e-02 1.893980056047439575e-01
1.406019926071166992e-01 -4.131999798119068146e-03 1.394959986209869385e-01
3.900700062513351440e-02 1.918999943882226944e-03 -1.808799989521503448e-02
-2.322800010442733765e-01 -2.968000015243887901e-03 1.374869942665100098e-01
-2.120600081980228424e-02 -3.838999895378947258e-03 8.894500136375427246e-02
8.955399692058563232e-02 -7.440000190399587154e-04 7.060000207275152206e-04
-1.252669990062713623e-01 2.823000075295567513e-03 1.934700086712837219e-02
-1.589870005846023560e-01 -4.325000103563070297e-03 2.627620100975036621e-01
5.039300024509429932e-02 -2.851000055670738220e-03 1.634149998426437378e-01
-4.816500097513198853e-02 -8.593999780714511871e-03 -1.190610006451606750e-01
2.253199927508831024e-02 7.946999743580818176e-03 -3.591009974479675293e-01
1.422529965639114380e-01 -3.748999908566474915e-03 1.029940024018287659e-01
5.561000201851129532e-03 -1.525699999183416367e-02 -2.130829989910125732e-01
1.211410015821456909e-01 -1.668299920856952667e-02 -2.229299955070018768e-02
4.125300049781799316e-02 -4.201300069689750671e-02 1.525200009346008301e-01
2.100200019776821136e-02 3.052099980413913727e-02 -1.815630048513412476e-01
-1.041100025177001953e-01 -5.406999960541725159e-03 2.250259965658187866e-01
-1.864490061998367310e-01 -2.706100046634674072e-02 8.648999780416488647e-02
7.823400199413299561e-02 1.255999971181154251e-02 2.629999944474548101e-04
2.641700021922588348e-02 -1.034899987280368805e-02 -2.127619981765747070e-01
8.724500238895416260e-02 6.336999684572219849e-02 2.424249947071075439e-01
1.220140010118484497e-01 -2.763699926435947418e-02 -4.552600160241127014e-02
-7.934699952602386475e-02 1.016699988394975662e-02 2.014580070972442627e-01
4.977799952030181885e-02 5.210000090301036835e-03 5.995300039649009705e-02
-9.248799830675125122e-02 4.279999993741512299e-03 -1.484499964863061905e-02
-7.408000063151121140e-03 -2.022800035774707794e-02 -3.198010027408599854e-01
5.463400110602378845e-02 -3.823700174689292908e-02 1.695850044488906860e-01
-3.940999880433082581e-02 7.067000027745962143e-03 -2.393949925899505615e-01
6.589200347661972046e-02 -4.718999844044446945e-03 -7.533799856901168823e-02
-5.619399994611740112e-02 9.278999641537666321e-03 2.401400059461593628e-01
1.542209982872009277e-01 2.317999955266714096e-03 7.813000120222568512e-03
1.251710057258605957e-01 -2.375799976289272308e-02 2.702799998223781586e-02
3.807799890637397766e-02 1.731700077652931213e-02 -1.957800053060054779e-02
-4.182200133800506592e-02 1.555499993264675140e-02 1.413299981504678726e-02
-9.670999832451343536e-03 4.699900001287460327e-02 -1.272010058164596558e-01
1.903999946080148220e-03 5.246800184249877930e-02 -1.536030024290084839e-01
-2.000200003385543823e-02 -1.074299961328506470e-02 -3.311490118503570557e-01
-1.525599956512451172e-01 -1.515199989080429077e-02 4.966900125145912170e-02
4.681299999356269836e-02 1.808499917387962341e-02 -9.689000248908996582e-02
-2.833800017833709717e-02 2.050000056624412537e-02 -1.123450025916099548e-01
3.461999818682670593e-02 -2.802999923005700111e-03 -2.677690088748931885e-01
4.906399920582771301e-02 -5.016399919986724854e-02 -1.025030016899108887e-01
-8.379000239074230194e-03 -1.621099933981895447e-02 -2.740339934825897217e-01
5.230300128459930420e-02 1.122000045143067837e-03 1.807999983429908752e-02
-4.599900171160697937e-02 -9.395999833941459656e-03 4.614200070500373840e-02
-2.371339946985244751e-01 -1.390999997965991497e-03 6.312900036573410034e-02
8.549299836158752441e-02 2.497100085020065308e-02 2.190439999103546143e-01
8.414500206708908081e-02 4.522100090980529785e-02 2.235240042209625244e-01
8.030699938535690308e-02 2.038699947297573090e-02 2.309159934520721436e-01
-1.951940059661865234e-01 -1.823800057172775269e-02 -4.428000189363956451e-03
3.313000127673149109e-02 -1.040299981832504272e-02 -5.397000163793563843e-02
-4.805399850010871887e-02 -4.607500135898590088e-02 3.705399855971336365e-02
-2.308000065386295319e-02 -2.248999895527958870e-03 -2.605500072240829468e-02
-1.122020035982131958e-01 -3.002299927175045013e-02 4.814900085330009460e-02
7.416000124067068100e-03 1.276000030338764191e-02 1.878550052642822266e-01
8.399000391364097595e-03 5.818000063300132751e-03 2.415599972009658813e-01
-2.700000004551839083e-05 -2.091600000858306885e-02 -4.336740076541900635e-01
4.656799882650375366e-02 1.197099965065717697e-02 2.447919994592666626e-01
-2.061700075864791870e-02 -8.465000428259372711e-03 -3.182260096073150635e-01
7.014799863100051880e-02 2.351999981328845024e-03 -1.457840055227279663e-01
2.741199918091297150e-02 1.071000006049871445e-03 3.879199922084808350e-02
-1.155880019068717957e-01 -2.018800005316734314e-02 -9.144599735736846924e-02
3.735499829053878784e-02 -7.677999790757894516e-03 -2.208590060472488403e-01
8.790100365877151489e-02 5.706200003623962402e-02 1.701699942350387573e-01
5.030999891459941864e-03 2.622500061988830566e-02 -3.525750041007995605e-01
1.506599970161914825e-02 4.596500098705291748e-02 -2.040269970893859863e-01
-5.938800051808357239e-02 9.040000149980187416e-04 1.049240007996559143e-01
-8.875100314617156982e-02 5.214999988675117493e-02 1.755799949169158936e-01
-9.743399918079376221e-02 1.104039996862411499e-01 2.763890027999877930e-01
-1.092810034751892090e-01 -5.394999869167804718e-03 2.478169947862625122e-01
6.658100336790084839e-02 3.740000072866678238e-03 1.282889991998672485e-01
2.263440042734146118e-01 -3.721999935805797577e-03 1.017000004649162292e-01
8.662500232458114624e-02 3.471000120043754578e-02 2.034589946269989014e-01
4.728800058364868164e-02 1.753699965775012970e-02 -1.227630004286766052e-01
8.356700092554092407e-02 -5.454000085592269897e-03 2.321310043334960938e-01
2.242200076580047607e-02 -7.860000245273113251e-03 -2.964990139007568359e-01
-5.087500065565109253e-02 -3.193100169301033020e-02 1.000450029969215393e-01
3.702799975872039795e-02 1.613599993288516998e-02 -1.995349973440170288e-01
3.958199918270111084e-02 7.317000068724155426e-03 1.390649974346160889e-01
1.003200002014636993e-02 -1.662199944257736206e-02 -2.965019941329956055e-01
-7.269000168889760971e-03 4.060700163245201111e-02 -5.668000131845474243e-02
-3.383100032806396484e-02 -6.800000119255855680e-05 -4.071500152349472046e-02
1.139940023422241211e-01 2.601000014692544937e-03 -4.904599860310554504e-02
-6.572999805212020874e-02 1.045100018382072449e-02 9.529000148177146912e-03
-1.977200061082839966e-02 -3.130200132727622986e-02 5.590999871492385864e-02
-1.571100018918514252e-02 -1.742099970579147339e-02 -3.487089872360229492e-01
-1.936399936676025391e-02 3.380500152707099915e-02 -1.695439964532852173e-01
4.827100038528442383e-02 -2.898300066590309143e-02 2.208880037069320679e-01
1.584400050342082977e-02 -1.177699957042932510e-02 1.196769997477531433e-01
7.887399941682815552e-02 1.418399997055530548e-02 -1.240300014615058899e-02
-1.776199974119663239e-02 2.587500028312206268e-02 -2.559600025415420532e-02
1.547200046479701996e-02 4.747200012207031250e-02 -2.684659957885742188e-01
1.210059970617294312e-01 -2.621999941766262054e-03 1.219149976968765259e-01
-1.118800044059753418e-02 2.084100060164928436e-02 1.157319992780685425e-01
-1.177099999040365219e-02 -1.471600029617547989e-02 2.268400043249130249e-01
9.788999706506729126e-02 -3.835000097751617432e-03 1.318480074405670166e-01
1.665650010108947754e-01 -2.120000077411532402e-03 4.896000027656555176e-02
1.543339937925338745e-01 -4.079999867826700211e-03 1.217319965362548828e-01
-1.561300009489059448e-01 -2.412299998104572296e-02 -3.089199960231781006e-02
7.782000303268432617e-02 -1.943000010214745998e-03 5.976900085806846619e-02
1.192199997603893280e-02 3.796000033617019653e-02 -3.030630052089691162e-01
-3.162899985909461975e-02 -3.552300110459327698e-02 2.173220068216323853e-01
5.909200012683868408e-02 -7.976000197231769562e-03 3.857199847698211670e-02
-4.681599885225296021e-02 -4.993800073862075806e-02 -4.954399913549423218e-02
2.101799994707107544e-01 -4.590000025928020477e-03 1.453769952058792114e-01
-4.223499819636344910e-02 1.768800057470798492e-02 -4.200699925422668457e-02
6.735199689865112305e-02 -1.942599937319755554e-02 1.439650058746337891e-01
8.198300004005432129e-02 1.365000009536743164e-02 1.449470072984695435e-01
1.540260016918182373e-01 -1.693199947476387024e-02 5.751400068402290344e-02
2.250600047409534454e-02 -1.257700007408857346e-02 1.810919940471649170e-01
-8.024100214242935181e-02 -6.723000202327966690e-03 2.059859931468963623e-01
1.666699908673763275e-02 -9.239999577403068542e-03 2.225420027971267700e-01
-5.892299860715866089e-02 -3.271700069308280945e-02 2.326930016279220581e-01
6.984899938106536865e-02 -2.533999970182776451e-03 -1.177700012922286987e-01
-8.397500216960906982e-02 3.991900011897087097e-02 1.849910020828247070e-01
-2.433899976313114166e-02 -4.003800079226493835e-02 6.451000273227691650e-02
2.271199971437454224e-02 2.120899967849254608e-02 -2.826150059700012207e-01
1.020030006766319275e-01 -4.672999959439039230e-03 1.932110041379928589e-01
-1.962300017476081848e-02 -7.995000109076499939e-03 6.235799938440322876e-02
-2.941700071096420288e-02 -1.041399966925382614e-02 5.108499899506568909e-02
5.741100013256072998e-02 -4.030000045895576477e-02 5.753000080585479736e-02
2.703750133514404297e-01 -4.567999858409166336e-03 1.309880018234252930e-01
1.109960004687309265e-01 -1.300300005823373795e-02 5.670500174164772034e-02
-8.824899792671203613e-02 3.674200177192687988e-02 2.318059951066970825e-01
-8.670499920845031738e-02 3.739999956451356411e-04 -3.026100061833858490e-02
-4.968500137329101562e-02 -5.541999824345111847e-03 -1.841499954462051392e-01
9.478700160980224609e-02 1.094240024685859680e-01 2.619130015373229980e-01
9.029000252485275269e-02 -2.076999982818961143e-03 3.920999914407730103e-02
3.274400159716606140e-02 -2.667099982500076294e-02 1.000450029969215393e-01
1.229069977998733521e-01 -1.937899924814701080e-02 -9.224099665880203247e-02
-4.980900138616561890e-02 3.417999949306249619e-03 -6.427899748086929321e-02
1.722499914467334747e-02 -6.769999861717224121e-03 2.379309982061386108e-01
-1.264390051364898682e-01 -2.972199954092502594e-02 2.914500050246715546e-02
1.407799962908029556e-02 1.993400044739246368e-02 8.577000349760055542e-02
-6.120999902486801147e-02 -7.853000424802303314e-03 1.617729961872100830e-01
5.570499971508979797e-02 -3.506400063633918762e-02 5.750000127591192722e-04
6.687299907207489014e-02 -2.673000097274780273e-03 -1.325840055942535400e-01
-3.961100056767463684e-02 1.978500001132488251e-02 -1.051829978823661804e-01
-1.751900091767311096e-02 -2.338699996471405029e-02 -5.577899888157844543e-02
7.465700060129165649e-02 -3.403000067919492722e-03 7.507699728012084961e-02
-6.249599903821945190e-02 -3.397300094366073608e-02 7.878100126981735229e-02
-9.715300053358078003e-02 1.164420023560523987e-01 2.634080052375793457e-01
2.848800085484981537e-02 -2.112000016495585442e-03 -6.374499946832656860e-02
-6.646899878978729248e-02 -7.346999831497669220e-03 1.109009981155395508e-01
1.777639985084533691e-01 -3.501000115647912025e-03 9.052500128746032715e-02
-8.327600359916687012e-02 2.089999988675117493e-02 1.239160001277923584e-01
4.364100098609924316e-02 -1.087099965661764145e-02 1.263449937105178833e-01
1.964199915528297424e-02 -4.960099980235099792e-02 -5.805699899792671204e-02
9.534200280904769897e-02 -3.073000116273760796e-03 7.530999928712844849e-02
-2.179699949920177460e-02 -4.975999891757965088e-02 -2.808099985122680664e-02
8.483699709177017212e-02 -3.029000014066696167e-03 1.218940019607543945e-01
-6.677400320768356323e-02 -3.729999880306422710e-04 -1.567559987306594849e-01
1.762329936027526855e-01 -3.779999911785125732e-03 3.240559995174407959e-01
1.189069971442222595e-01 -2.130500040948390961e-02 -1.131580024957656860e-01
-4.244700074195861816e-02 -3.724300116300582886e-02 2.469809949398040771e-01
-9.928999841213226318e-02 1.289339959621429443e-01 2.461829930543899536e-01
-8.483000099658966064e-02 3.642899915575981140e-02 1.352089941501617432e-01
-4.894800111651420593e-02 -2.462200075387954712e-02 1.587020009756088257e-01
5.566800013184547424e-02 -1.770799979567527771e-02 2.208880037069320679e-01
1.253999955952167511e-02 1.921799965202808380e-02 1.105659976601600647e-01
1.205469965934753418e-01 -4.732000175863504410e-03 2.154960036277770996e-01
-6.202900037169456482e-02 4.350000061094760895e-03 1.490319967269897461e-01
2.405700087547302246e-02 5.929999751970171928e-04 7.768599689006805420e-02
5.913700163364410400e-02 -2.009999938309192657e-02 3.089400008320808411e-02
-8.541000075638294220e-03 3.591300174593925476e-02 -5.437000188976526260e-03
2.004599943757057190e-02 -3.251799941062927246e-02 9.146899729967117310e-02
-1.577959954738616943e-01 -1.394299976527690887e-02 2.378699928522109985e-02
6.112400069832801819e-02 -3.016600012779235840e-02 5.087099969387054443e-02
1.190939992666244507e-01 -2.968000015243887901e-03 7.022599875926971436e-02
-4.249199852347373962e-02 -1.014200039207935333e-02 7.199800014495849609e-02
6.743100285530090332e-02 -1.822900027036666870e-02 1.852640062570571899e-01
-1.217660009860992432e-01 -6.249999860301613808e-04 1.202999963425099850e-03
-3.493800014257431030e-02 1.266099978238344193e-02 -2.240090072154998779e-01
5.111699923872947693e-02 -4.992099851369857788e-02 -8.315400034189224243e-02
-1.384450048208236694e-01 1.447999966330826283e-03 5.568800121545791626e-02
1.312009990215301514e-01 8.789999992586672306e-04 7.068999856710433960e-02
1.651470065116882324e-01 -3.716999897733330727e-03 3.156349956989288330e-01
1.945119947195053101e-01 -2.322600036859512329e-02 8.698199689388275146e-02
-1.656119972467422485e-01 -2.466999925673007965e-03 5.867699906229972839e-02
-1.731500029563903809e-02 -1.488700043410062790e-02 4.320900142192840576e-02
7.965800166130065918e-02 1.784300059080123901e-02 2.099290043115615845e-01
-5.863500013947486877e-02 3.053999971598386765e-03 -1.936379969120025635e-01
-2.146530002355575562e-01 -3.417999949306249619e-03 9.153199940919876099e-02
8.522900193929672241e-02 -5.450000055134296417e-03 2.039120048284530640e-01
-6.471000146120786667e-03 -1.589700020849704742e-02 -2.464230060577392578e-01
6.589999888092279434e-03 3.148400038480758667e-02 4.574399814009666443e-02
-5.388399958610534668e-02 -2.487000077962875366e-02 -2.511199936270713806e-02
-1.886650025844573975e-01 -4.466999787837266922e-03 3.255639970302581787e-01
-6.707099825143814087e-02 1.127999974414706230e-03 1.692049950361251831e-01
4.930000007152557373e-02 1.632500067353248596e-02 -4.888400062918663025e-02
1.805399917066097260e-02 -1.058300025761127472e-02 -1.224830001592636108e-01
-1.289079934358596802e-01 -5.206000059843063354e-03 2.968420088291168213e-01
3.495600074529647827e-02 -1.066999975591897964e-03 -9.769800305366516113e-02
3.174399957060813904e-02 -1.048399973660707474e-02 3.468099981546401978e-02
-1.738799922168254852e-02 4.606200009584426880e-02 -2.406519949436187744e-01
4.189699888229370117e-02 -2.325199916958808899e-02 -6.373199820518493652e-02
3.269999846816062927e-02 -3.939900174736976624e-02 1.744740009307861328e-01
4.011100158095359802e-02 -3.993099927902221680e-02 2.022600024938583374e-01
1.672899909317493439e-02 -2.350500039756298065e-02 1.789099909365177155e-02
-2.637049853801727295e-01 -1.322000054642558098e-03 1.049939990043640137e-01
-4.731800034642219543e-02 -4.465600103139877319e-02 7.274699956178665161e-02
2.995100058615207672e-02 -8.512999862432479858e-03 -2.549700140953063965e-01
-4.432300105690956116e-02 -3.822800144553184509e-02 2.206850051879882812e-01
-6.737499684095382690e-02 1.156899984925985336e-02 -4.156700149178504944e-02
-6.521499902009963989e-02 6.326000206172466278e-03 -1.672900021076202393e-01
2.771999919787049294e-03 5.066199973225593567e-02 -1.397600024938583374e-01
-1.872799918055534363e-02 -3.327599912881851196e-02 -1.265890002250671387e-01
5.763199925422668457e-02 -8.647000417113304138e-03 1.041430011391639709e-01
-5.380399897694587708e-02 8.812000043690204620e-03 2.575240135192871094e-01
-1.933829933404922485e-01 1.086000003851950169e-03 4.397900030016899109e-02
-2.777709960937500000e-01 -4.976000171154737473e-03 1.640989929437637329e-01
1.708099991083145142e-02 3.684899955987930298e-02 -1.715839952230453491e-01
5.177799984812736511e-02 1.315500028431415558e-02 2.435100078582763672e-02
-4.351799935102462769e-02 -1.797099970281124115e-02 1.000450029969215393e-01
-6.492000073194503784e-02 8.379000239074230194e-03 6.778399646282196045e-02
-5.401200056076049805e-02 2.026000060141086578e-03 3.753900155425071716e-02
1.762199960649013519e-02 2.416000002995133400e-03 1.984910070896148682e-01
-1.072250008583068848e-01 2.749999985098838806e-03 -5.694799870252609253e-02
6.025899946689605713e-02 5.894000176340341568e-03 2.333430051803588867e-01
-3.931099921464920044e-02 3.795000026002526283e-03 1.804099977016448975e-02
-8.038400113582611084e-02 1.264400035142898560e-02 3.839800134301185608e-02
-1.947270035743713379e-01 -2.343500033020973206e-02 3.781900182366371155e-02
4.409400001168251038e-02 -1.711400039494037628e-02 1.634149998426437378e-01
-5.395599827170372009e-02 -3.047700040042400360e-02 2.703190147876739502e-01
1.882970035076141357e-01 -4.296000115573406219e-03 3.162789940834045410e-01
-2.519440054893493652e-01 -4.896999802440404892e-03 1.571989953517913818e-01
1.925179958343505859e-01 -1.356900017708539963e-02 3.282500058412551880e-02
-1.650879979133605957e-01 -1.557100005447864532e-02 5.576900020241737366e-02
-2.196099981665611267e-02 -4.067999776452779770e-03 -1.382999960333108902e-02
-5.960600078105926514e-02 -3.891199827194213867e-02 6.683599948883056641e-02
-2.225399948656558990e-02 -3.360999980941414833e-03 -4.923199862241744995e-02
8.549600094556808472e-02 3.570500016212463379e-02 2.734220027923583984e-01
-9.254000149667263031e-03 3.278199955821037292e-02 2.669299952685832977e-02
1.176249980926513672e-01 -2.752199955284595490e-02 -2.800700068473815918e-02
-1.015300024300813675e-02 -1.483200024813413620e-02 1.715160012245178223e-01
-1.770839989185333252e-01 -4.583999980241060257e-03 3.422160148620605469e-01
-2.344200015068054199e-02 -2.605400048196315765e-02 2.552100121974945068e-01
3.599999845027923584e-02 5.425000097602605820e-03 5.364200100302696228e-02
2.341100014746189117e-02 -4.459200054407119751e-02 2.003600075840950012e-02
-1.450799964368343353e-02 2.219500020146369934e-02 7.251700013875961304e-02
1.293160021305084229e-01 -3.289899975061416626e-02 6.904699653387069702e-02
1.575369983911514282e-01 -1.363999955356121063e-02 -7.089999970048666000e-03
8.689999580383300781e-03 1.072099991142749786e-02 2.011079937219619751e-01
-1.686899922788143158e-02 -1.763699948787689209e-02 -1.018109992146492004e-01
5.154199898242950439e-02 -4.474699869751930237e-02 -5.595200136303901672e-02
1.596750020980834961e-01 -1.054599974304437637e-02 3.801599889993667603e-02
-9.342700242996215820e-02 9.544499963521957397e-02 2.512980103492736816e-01
1.648899912834167480e-02 -2.319400012493133545e-02 -7.892400026321411133e-02
2.348200045526027679e-02 1.230499986559152603e-02 -3.010219931602478027e-01
-5.520999897271394730e-03 -1.576000079512596130e-02 1.383029967546463013e-01
-9.490499645471572876e-02 8.598899841308593750e-02 2.595010101795196533e-01
-3.162299841642379761e-02 2.879000036045908928e-03 3.243499994277954102e-02
3.482999978587031364e-03 4.730900004506111145e-02 -2.956140041351318359e-01
-9.965999983251094818e-03 2.479000017046928406e-02 -3.524869978427886963e-01
8.907900005578994751e-02 5.232499912381172180e-02 2.514120042324066162e-01
-3.682300075888633728e-02 2.025499939918518066e-02 -8.497799932956695557e-02
-5.770200118422508240e-02 6.136999931186437607e-03 1.172640025615692139e-01
-4.763200134038925171e-02 -4.871099814772605896e-02 -2.319500036537647247e-02
-2.368080019950866699e-01 -4.404999781399965286e-03 1.557449996471405029e-01
-2.047700062394142151e-02 -3.583399951457977295e-02 4.410099983215332031e-02
1.797400042414665222e-02 -3.572800010442733765e-02 -5.179300159215927124e-02
-1.838250011205673218e-01 -2.887000096961855888e-03 1.327160000801086426e-01
-5.066600069403648376e-02 -3.335399925708770752e-02 -1.097910031676292419e-01
2.340300008654594421e-02 3.653000108897686005e-03 -3.247349858283996582e-01
6.080299988389015198e-02 9.878000244498252869e-03 5.683299899101257324e-02
3.570500016212463379e-02 -3.754400089383125305e-02 2.316790074110031128e-01
-1.734899915754795074e-02 -1.687699928879737854e-02 1.701799966394901276e-02
-5.629900097846984863e-02 -3.346199914813041687e-02 2.468280047178268433e-01
4.998200014233589172e-02 -2.165999962016940117e-03 -2.141840010881423950e-01
1.847100071609020233e-02 -2.471699938178062439e-02 1.733189970254898071e-01
1.695349961519241333e-01 7.880000048317015171e-04 1.995000056922435760e-03
-1.111560016870498657e-01 2.616999903693795204e-03 2.848099917173385620e-02
2.100149989128112793e-01 2.819999936036765575e-04 5.128499865531921387e-02
5.745999980717897415e-03 3.432900086045265198e-02 2.284399978816509247e-02
1.913600042462348938e-02 -1.408900041133165359e-02 -3.952969908714294434e-01
-1.132830008864402771e-01 -4.606000147759914398e-03 2.061389982700347900e-01
1.662600040435791016e-02 4.491699859499931335e-02 -2.397599965333938599e-01
-2.798499912023544312e-02 9.313999675214290619e-03 -6.167599931359291077e-02
5.678100138902664185e-02 -3.882999997586011887e-03 1.188260018825531006e-01
-2.771599963307380676e-02 -4.220000002533197403e-03 -1.278900057077407837e-01
1.692669987678527832e-01 -2.774999942630529404e-03 6.802099943161010742e-02
-1.910959929227828979e-01 -1.514100003987550735e-02 9.680099785327911377e-02
-4.802300035953521729e-02 -5.040499940514564514e-02 -1.008919999003410339e-01
1.194550022482872009e-01 -7.280999794602394104e-03 -3.011900000274181366e-02
5.055300146341323853e-02 -4.741299897432327271e-02 -4.110000096261501312e-03
-2.880300022661685944e-02 -4.345899820327758789e-02 5.046400055289268494e-02
1.540200039744377136e-02 -2.329000039026141167e-03 -4.211010038852691650e-01
-4.397999960929155350e-03 5.325600132346153259e-02 -1.641850024461746216e-01
-1.847100071609020233e-02 -3.147999988868832588e-03 -6.334900110960006714e-02
3.795000165700912476e-02 -9.800000116229057312e-03 -1.309189945459365845e-01
1.623700000345706940e-02 3.057299926877021790e-02 -5.739599838852882385e-02
1.088100019842386246e-02 -1.369599997997283936e-02 5.864299833774566650e-02
-1.646599918603897095e-02 4.562700167298316956e-02 -2.078910022974014282e-01
-4.109499976038932800e-02 3.620000090450048447e-03 1.000450029969215393e-01
-5.169399827718734741e-02 1.199700031429529190e-02 -1.880729943513870239e-01
2.370800077915191650e-02 6.444999948143959045e-03 -2.897540032863616943e-01
1.590729951858520508e-01 1.855000038631260395e-03 3.906799852848052979e-02
5.530999973416328430e-02 1.002500019967556000e-02 7.211799919605255127e-02
1.051099970936775208e-02 8.477999828755855560e-03 -4.079619944095611572e-01
-8.662900328636169434e-02 4.760700091719627380e-02 1.476660072803497314e-01
-2.839099988341331482e-02 6.978999823331832886e-03 -2.640500068664550781e-01
-1.010069996118545532e-01 -5.319999996572732925e-03 2.078270018100738525e-01
-1.554230004549026489e-01 5.700000110664404929e-05 8.702699840068817139e-02
6.345900148153305054e-02 -8.132999762892723083e-03 1.546390056610107422e-01
-1.272719949483871460e-01 -3.055500052869319916e-02 4.272599890828132629e-02
3.391199931502342224e-02 -5.022900179028511047e-02 -4.021000117063522339e-02
1.984000019729137421e-02 -2.920000115409493446e-04 1.585640013217926025e-01
-9.435100108385086060e-02 1.023510023951530457e-01 2.379660010337829590e-01
-2.000899985432624817e-02 -4.434200003743171692e-02 -1.141690015792846680e-01
1.622099988162517548e-02 -1.239399984478950500e-02 -3.074109852313995361e-01
-8.696000277996063232e-02 5.807000026106834412e-02 2.049629986286163330e-01
-2.069200016558170319e-02 -3.131600096821784973e-02 9.672699868679046631e-02
1.284999996423721313e-01 -3.208300098776817322e-02 5.186999961733818054e-02
7.548000197857618332e-03 5.823399871587753296e-02 -2.725909948348999023e-01
-6.666699796915054321e-02 1.123300008475780487e-02 -2.393699996173381805e-02
8.684200048446655273e-02 3.860300034284591675e-02 1.852580010890960693e-01
1.109860017895698547e-01 -3.093999996781349182e-02 4.765599966049194336e-02
1.121800020337104797e-01 -3.351999912410974503e-03 2.651810050010681152e-01
1.574590057134628296e-01 -2.509500086307525635e-02 4.588000010699033737e-03
-2.413799986243247986e-02 -2.671000082045793533e-03 -3.821989893913269043e-01
-1.167550012469291687e-01 -1.924899965524673462e-02 4.010700061917304993e-02
4.766000062227249146e-02 -1.561900041997432709e-02 -1.722069978713989258e-01
-1.906429976224899292e-01 -1.336499955505132675e-02 6.990700215101242065e-02
-8.823399990797042847e-02 5.651199817657470703e-02 1.595010012388229370e-01
-3.480999963358044624e-03 3.002299927175045013e-02 -3.388450145721435547e-01
4.465800151228904724e-02 -9.426999837160110474e-03 3.736300021409988403e-02
-1.312219947576522827e-01 -1.179200038313865662e-02 -2.999399974942207336e-02
3.545499965548515320e-02 2.034500055015087128e-02 -1.056419983506202698e-01
-2.171199955046176910e-02 -3.747999900951981544e-03 2.450600080192089081e-02
-9.539999999105930328e-03 -9.089999948628246784e-04 -4.310620129108428955e-01
-5.703699961304664612e-02 9.136999957263469696e-03 2.268310040235519409e-01
2.623400092124938965e-02 -2.996600046753883362e-02 2.589400112628936768e-01
1.852500066161155701e-02 -3.378999885171651840e-03 1.726839989423751831e-01
-8.394300192594528198e-02 -1.770999981090426445e-03 2.937800064682960510e-02
3.220900148153305054e-02 -4.430399835109710693e-02 5.198699980974197388e-02
-5.920499935746192932e-02 -1.026900019496679306e-02 1.738270074129104614e-01
-2.119700051844120026e-02 -3.957999870181083679e-03 7.562199980020523071e-02
6.219099834561347961e-02 -3.348299860954284668e-02 9.241399914026260376e-02
-2.012100070714950562e-02 3.157800063490867615e-02 -2.635619938373565674e-01
1.630589962005615234e-01 -4.222999792546033859e-03 1.312389969825744629e-01
-1.891699992120265961e-02 3.327300027012825012e-02 -2.767060101032257080e-01
-4.111799970269203186e-02 -9.859999641776084900e-03 -6.556000094860792160e-03
3.492299839854240417e-02 1.298900041729211807e-02 7.743600010871887207e-02
1.346890032291412354e-01 1.923999981954693794e-03 -3.004699945449829102e-02
9.299500286579132080e-02 9.898900240659713745e-02 2.521870136260986328e-01
-1.328819990158081055e-01 -3.462000051513314247e-03 2.835780084133148193e-01
2.486159950494766235e-01 -2.314999932423233986e-03 7.936699688434600830e-02
-1.821500062942504883e-01 3.209999995306134224e-04 7.790800184011459351e-02
-2.063499949872493744e-02 -4.033900052309036255e-02 1.793199963867664337e-02
-1.852899976074695587e-02 3.809599950909614563e-02 -2.528910040855407715e-01
1.904500089585781097e-02 -2.649299986660480499e-02 1.569900065660476685e-01
-6.949300318956375122e-02 9.170999750494956970e-03 -1.412899941205978394e-01
4.881900176405906677e-02 -4.822999984025955200e-02 -1.801200024783611298e-02
-1.246159970760345459e-01 -5.286999978125095367e-03 2.341739982366561890e-01
-2.543300017714500427e-02 1.923100091516971588e-02 -1.525699999183416367e-02
1.802700012922286987e-02 -2.483900077641010284e-02 1.238289996981620789e-01
2.778599970042705536e-02 1.696600019931793213e-02 2.472000010311603546e-02
-4.971399903297424316e-02 -2.512300014495849609e-02 -1.194429993629455566e-01
-1.192609965801239014e-01 -6.256999913603067398e-03 -2.290700003504753113e-02
2.214670032262802124e-01 -4.573000129312276840e-03 1.553490012884140015e-01
2.607100084424018860e-02 2.041699923574924469e-02 -1.510120034217834473e-01
9.654899686574935913e-02 -3.501000115647912025e-03 2.724950015544891357e-01
-2.269999968120828271e-04 -1.612400077283382416e-02 -9.765700250864028931e-02
1.762969940900802612e-01 1.508999965153634548e-03 2.462200075387954712e-02
2.662199921905994415e-02 -1.063199993222951889e-02 -8.997599780559539795e-02
4.957500100135803223e-02 -3.296200186014175415e-02 -7.397300004959106445e-02
-2.599200047552585602e-02 -2.667899988591670990e-02 2.691780030727386475e-01
-5.756599828600883484e-02 -3.844099864363670349e-02 1.361299958080053329e-02
-5.517699941992759705e-02 -8.379999548196792603e-03 6.573499739170074463e-02
-1.561120003461837769e-01 -2.402799949049949646e-02 1.615300029516220093e-02
-3.588499873876571655e-02 -4.083000123500823975e-02 1.623519957065582275e-01
-2.831000089645385742e-02 -2.336700074374675751e-02 -6.374900043010711670e-02
1.941169947385787964e-01 -2.482599951326847076e-02 -5.096999928355216980e-03
1.897449940443038940e-01 -5.700000110664404929e-05 8.676300197839736938e-02
2.632929980754852295e-01 -1.820000004954636097e-03 1.203600019216537476e-01
1.705900020897388458e-02 1.232600025832653046e-02 -3.805750012397766113e-01
1.461699977517127991e-02 -6.653000134974718094e-03 -1.337009966373443604e-01
-1.690029948949813843e-01 -4.949000198394060135e-03 3.316609859466552734e-01
3.728200122714042664e-02 -8.828000165522098541e-03 -1.903579980134963989e-01
-1.891520023345947266e-01 -2.425299957394599915e-02 4.919900000095367432e-02
1.118599995970726013e-02 3.310399875044822693e-02 -3.916000016033649445e-03
-1.132109984755516052e-01 -1.568700000643730164e-02 7.016400247812271118e-02
-1.316499989479780197e-02 -1.233599986881017685e-02 -2.436400018632411957e-02
1.431290060281753540e-01 -4.776999820023775101e-03 3.265559971332550049e-01
-2.240099944174289703e-02 -2.974200062453746796e-02 1.876450031995773315e-01
9.334199875593185425e-02 8.266100287437438965e-02 2.208549976348876953e-01
2.914000069722533226e-03 5.458600074052810669e-02 -2.847389876842498779e-01
3.413899987936019897e-02 -4.927200078964233398e-02 -2.749199979007244110e-02
1.657699979841709137e-02 -2.254799939692020416e-02 3.105999901890754700e-03
-9.519600123167037964e-02 -3.260999917984008789e-03 2.483969926834106445e-01
-1.782999932765960693e-02 -1.912700012326240540e-02 1.582739949226379395e-01
-6.704899668693542480e-02 1.271400041878223419e-02 -9.298299998044967651e-02
-7.895500212907791138e-02 6.591999903321266174e-03 2.161639928817749023e-01
1.913099922239780426e-02 -3.486900031566619873e-02 2.781799994409084320e-02
-1.219900045543909073e-02 -1.315999962389469147e-02 2.814400009810924530e-02
-1.491049975156784058e-01 -1.797999953851103783e-03 3.761000186204910278e-02
-5.220099911093711853e-02 -4.686199873685836792e-02 -6.976199895143508911e-02
7.742600142955780029e-02 -1.322999945841729641e-03 -3.303000004962086678e-03
1.027650013566017151e-01 2.770999912172555923e-03 -5.910599976778030396e-02
-3.557499870657920837e-02 1.204899977892637253e-02 1.699430048465728760e-01
-5.191899836063385010e-02 4.253999795764684677e-03 -8.751799911260604858e-02
2.249800041317939758e-02 -3.736799955368041992e-02 7.987699657678604126e-02
-6.368999835103750229e-03 2.750300057232379913e-02 8.163800090551376343e-02
-3.433199971914291382e-02 1.752999960444867611e-03 -8.241999894380569458e-03
-1.336700003594160080e-02 -1.186599954962730408e-02 -8.756099641323089600e-02
9.657199680805206299e-02 1.190309971570968628e-01 2.327470034360885620e-01
-3.314600139856338501e-02 1.479199994355440140e-02 5.960100144147872925e-02
1.463180035352706909e-01 1.529000001028180122e-03 -1.958099938929080963e-02
-1.869099959731101990e-02 -3.271099925041198730e-02 -1.516129970550537109e-01
1.909350007772445679e-01 -1.775299943983554840e-02 9.808500111103057861e-02
-6.630499660968780518e-02 -2.098800055682659149e-02 2.468090057373046875e-01
-3.587700054049491882e-02 -4.881700128316879272e-02 -6.374400109052658081e-02
1.416310071945190430e-01 -3.959000110626220703e-03 1.169079989194869995e-01
1.157959997653961182e-01 1.527999993413686752e-03 5.714699998497962952e-02
-1.242950037121772766e-01 3.435000078752636909e-03 -1.621099933981895447e-02
-3.713000100106000900e-03 -1.568399928510189056e-02 -1.571670025587081909e-01
9.976799786090850830e-02 1.342519968748092651e-01 2.600170075893402100e-01
-6.750199943780899048e-02 8.759000338613986969e-03 5.201400071382522583e-02
1.248319968581199646e-01 -3.907999955117702484e-03 1.363829970359802246e-01
-1.656500063836574554e-02 -1.238899957388639450e-02 -4.261189997196197510e-01
1.096180006861686707e-01 -3.213000018149614334e-03 8.042400330305099487e-02
-1.255310028791427612e-01 -2.330300025641918182e-02 -1.056199986487627029e-02
4.928199946880340576e-02 1.667200028896331787e-02 -1.353449970483779907e-01
-2.813700027763843536e-02 1.771999988704919815e-03 1.000450029969215393e-01
1.818449944257736206e-01 -2.632000017911195755e-03 6.535299867391586304e-02
-3.943299874663352966e-02 -3.291400149464607239e-02 2.703190147876739502e-01
1.211410015821456909e-01 -1.250999979674816132e-03 -1.410099957138299942e-02
-1.384350061416625977e-01 -2.302000066265463829e-03 1.201580017805099487e-01
1.239269971847534180e-01 3.205999964848160744e-03 8.460000157356262207e-03
-2.225539982318878174e-01 -2.268000040203332901e-03 6.533300131559371948e-02
3.781000152230262756e-02 2.475999994203448296e-03 -4.920999985188245773e-03
4.953199997544288635e-02 -5.010800063610076904e-02 -6.842599809169769287e-02
5.160500109195709229e-02 1.445200014859437943e-02 -1.208699960261583328e-02
-1.920700073242187500e-01 -4.668000154197216034e-03 3.133229911327362061e-01
8.413200080394744873e-02 4.375800117850303650e-02 1.696459949016571045e-01
8.438800275325775146e-02 -4.788000136613845825e-03 2.986710071563720703e-01
1.373919993638992310e-01 2.920000115409493446e-03 1.237499993294477463e-02
7.487999647855758667e-02 9.010000154376029968e-03 -5.086499825119972229e-02
-5.072800070047378540e-02 -3.423799946904182434e-02 -7.352399826049804688e-02
1.301569938659667969e-01 -3.373999893665313721e-02 -3.585200011730194092e-02
-1.646420061588287354e-01 -2.719900012016296387e-02 6.687100231647491455e-02
-2.478979974985122681e-01 -3.071000101044774055e-03 1.432590037584304810e-01
-5.589700117707252502e-02 1.163799967616796494e-02 -1.753039956092834473e-01
5.817899852991104126e-02 -3.717900067567825317e-02 1.150759980082511902e-01
-1.682820022106170654e-01 -3.299999982118606567e-03 8.336599916219711304e-02
-6.885600090026855469e-02 1.195800025016069412e-02 -1.056929975748062134e-01
-9.402800351381301880e-02 9.364199638366699219e-02 1.992709934711456299e-01
-1.648100093007087708e-02 -8.380999788641929626e-03 -1.587740033864974976e-01
8.002399653196334839e-02 2.109399996697902679e-02 1.974699944257736206e-01
-4.218899831175804138e-02 6.339999847114086151e-03 5.769100040197372437e-02
-5.918699875473976135e-02 -3.917099907994270325e-02 3.848699852824211121e-02
-9.374199807643890381e-02 8.548499643802642822e-02 2.783280014991760254e-01
-8.379999548196792603e-03 4.929099977016448975e-02 -2.904149889945983887e-01
8.862899988889694214e-02 4.903399944305419922e-02 2.084140032529830933e-01
4.092200100421905518e-02 -4.660300165414810181e-02 4.331399872899055481e-02
-3.661800175905227661e-02 8.435999974608421326e-03 2.703190147876739502e-01
1.797270029783248901e-01 -2.106999978423118591e-03 5.009099841117858887e-02
7.938200235366821289e-02 1.093100011348724365e-02 5.633899942040443420e-02
7.043900340795516968e-02 -3.545999992638826370e-03 2.695089876651763916e-01
-8.724999614059925079e-03 6.195500120520591736e-02 -2.570709884166717529e-01
-6.767699867486953735e-02 -2.235200069844722748e-02 1.718470007181167603e-01
7.772800326347351074e-02 2.049000002443790436e-03 -1.080359965562820435e-01
-3.826000168919563293e-02 -1.113899983465671539e-02 1.150640025734901428e-01
-1.746499910950660706e-02 -2.169499918818473816e-02 -1.997000072151422501e-03
9.116400033235549927e-02 7.530099898576736450e-02 2.764750123023986816e-01
-6.574500352144241333e-02 -2.782900072634220123e-02 1.424770057201385498e-01
-2.143789976835250854e-01 -7.009999826550483704e-04 4.201500117778778076e-02
3.632799908518791199e-02 1.333600003272294998e-02 -1.283040046691894531e-01
-1.982099935412406921e-02 -4.252199828624725342e-02 -1.351840049028396606e-01
-1.100329980254173279e-01 -1.173899974673986435e-02 -3.068999946117401123e-02
-1.437480002641677856e-01 2.798999892547726631e-03 1.277900021523237228e-02
-4.434999823570251465e-02 1.050299964845180511e-02 1.138589978218078613e-01
-4.233700037002563477e-02 1.708799973130226135e-02 -1.749809980392456055e-01
-4.772799834609031677e-02 1.595100015401840210e-02 -2.472900040447711945e-02
5.236800014972686768e-02 1.348599977791309357e-02 -1.680539995431900024e-01
5.945099890232086182e-02 1.385500002652406693e-02 -1.276520043611526489e-01
-1.682000048458576202e-02 -6.169999949634075165e-03 -2.797999884933233261e-03
1.478430032730102539e-01 2.582000102847814560e-03 1.940000057220458984e-02
-1.551400031894445419e-02 -5.857000127434730530e-03 -1.223030015826225281e-01
-3.390000015497207642e-02 -3.884600102901458740e-02 1.899390071630477905e-01
8.740299940109252930e-02 3.743699938058853149e-02 2.378699928522109985e-01
-1.347430050373077393e-01 3.138999920338392258e-03 3.630999941378831863e-03
7.510000141337513924e-04 3.936199843883514404e-02 -2.811199985444545746e-02
-3.566800057888031006e-02 -2.430200017988681793e-02 1.587020009756088257e-01
-3.701699897646903992e-02 -1.243199966847896576e-02 1.875910013914108276e-01
9.686700254678726196e-02 1.215490028262138367e-01 2.475840002298355103e-01
8.949000388383865356e-03 5.477299913763999939e-02 -1.977699995040893555e-01
1.506489962339401245e-01 1.567000057548284531e-03 4.925800114870071411e-02
4.873000085353851318e-02 1.769199967384338379e-02 -8.161000162363052368e-02
-1.653729975223541260e-01 -1.165000023320317268e-03 1.082959994673728943e-01
6.492000073194503784e-03 -1.501999981701374054e-02 3.262399882078170776e-02
2.233899943530559540e-02 1.188800018280744553e-02 1.128510013222694397e-01
3.358900174498558044e-02 -4.842700064182281494e-02 -1.503999996930360794e-02
2.130199968814849854e-02 -8.808000013232231140e-03 -3.524140119552612305e-01
9.218800067901611328e-02 9.503900259733200073e-02 2.196079939603805542e-01
-2.298000082373619080e-02 3.386999946087598801e-03 2.163220047950744629e-01
-1.112790033221244812e-01 3.290999913588166237e-03 9.170999750494956970e-03
3.469999879598617554e-02 2.044600062072277069e-02 -9.283299744129180908e-02
-2.453299984335899353e-02 2.288600057363510132e-02 -1.640769988298416138e-01
-1.552159935235977173e-01 -1.872000051662325859e-03 1.170160025358200073e-01
-1.837800070643424988e-02 2.260700054466724396e-02 -3.334800004959106445e-01
-7.601399719715118408e-02 -6.723000202327966690e-03 2.525399923324584961e-01
4.354099929332733154e-02 -4.234000109136104584e-03 1.000450029969215393e-01
-5.009699985384941101e-02 1.333600003272294998e-02 -1.616290062665939331e-01
1.731500029563903809e-02 -3.012200072407722473e-02 -9.205300360918045044e-02
3.637700155377388000e-02 -1.016900036484003067e-02 -4.086700081825256348e-02
6.593400239944458008e-02 -2.202999964356422424e-02 2.276470065116882324e-01
-1.747399941086769104e-02 -2.211599983274936676e-02 -1.747000031173229218e-02
-1.016310006380081177e-01 -3.311000065878033638e-03 2.589519917964935303e-01
5.549500137567520142e-02 -4.367300122976303101e-02 1.185800042003393173e-02
7.300000172108411789e-03 2.726900018751621246e-02 7.734400033950805664e-02
6.293600052595138550e-02 -2.024500072002410889e-02 1.169760003685951233e-01
-1.866430044174194336e-01 -2.686700038611888885e-02 7.371299713850021362e-02
3.596900030970573425e-02 -5.551000125706195831e-03 -1.542319953441619873e-01
3.338000178337097168e-02 5.793000105768442154e-03 1.622480005025863647e-01
-1.174559965729713440e-01 -1.822800002992153168e-02 -7.838500291109085083e-02
-1.592880040407180786e-01 -1.271000038832426071e-02 -4.571000114083290100e-03
-1.072549968957901001e-01 -5.350000225007534027e-03 2.713080048561096191e-01
-1.033200044184923172e-02 -1.356399990618228912e-02 -2.021420001983642578e-01
2.787699922919273376e-02 7.437000051140785217e-03 -2.609539926052093506e-01
-8.017099648714065552e-02 -1.122000045143067837e-03 8.536399900913238525e-02
2.148559987545013428e-01 -1.878999988548457623e-03 1.233740001916885376e-01
-6.145799905061721802e-02 -3.348299860954284668e-02 1.730030030012130737e-01
6.590399891138076782e-02 8.028999902307987213e-03 -1.571100056171417236e-01
-2.485579997301101685e-01 -3.453999990597367287e-03 9.652700275182723999e-02
3.278600051999092102e-02 -1.043900009244680405e-02 1.785900071263313293e-02
2.051980048418045044e-01 -2.620999934151768684e-03 6.773299723863601685e-02
-8.516199886798858643e-02 -4.416000097990036011e-03 2.957899868488311768e-01
1.641399972140789032e-02 -1.949900016188621521e-02 -1.444900035858154297e-02
6.736399978399276733e-02 -2.240099944174289703e-02 1.008659973740577698e-01
-6.175599992275238037e-02 -6.184000056236982346e-03 -6.093899905681610107e-02
-1.460199952125549316e-01 -3.509999951347708702e-03 2.621070146560668945e-01
-7.943800091743469238e-02 6.637000013142824173e-03 2.322490066289901733e-01
1.468500029295682907e-02 3.752600029110908508e-02 -9.940599650144577026e-02
-7.033599913120269775e-02 1.127999974414706230e-03 1.816110014915466309e-01
-1.556230038404464722e-01 -4.383000079542398453e-03 3.285869956016540527e-01
-2.416699938476085663e-02 3.942999988794326782e-03 -3.047960102558135986e-01
-4.242200031876564026e-02 -3.829599916934967041e-02 2.333219945430755615e-01
4.827300086617469788e-02 -2.098100073635578156e-02 -1.595309972763061523e-01
8.743999898433685303e-02 -4.577000159770250320e-03 1.768919974565505981e-01
-5.145499855279922485e-02 -1.139799971133470535e-02 1.833859980106353760e-01
3.102000104263424873e-03 -1.586700044572353363e-02 1.504099965095520020e-01
-4.332699999213218689e-02 -2.493999898433685303e-03 -1.291169971227645874e-01
2.139499969780445099e-02 2.512500062584877014e-02 -1.186800003051757812e-01
-5.506800115108489990e-02 9.921999648213386536e-03 7.650300115346908569e-02
-1.148670017719268799e-01 -3.614000044763088226e-03 2.860450148582458496e-01
-6.536799669265747070e-02 1.234600041061639786e-02 -1.232929974794387817e-01
4.681999981403350830e-02 -3.597199916839599609e-02 2.552599906921386719e-01
-3.189000114798545837e-02 -1.051199994981288910e-02 2.875000005587935448e-03
4.739800095558166504e-02 3.417999949306249619e-03 -8.049800246953964233e-02
1.940159946680068970e-01 -2.901999978348612785e-03 7.449500262737274170e-02
-1.766159981489181519e-01 4.579999949783086777e-04 1.704999990761280060e-02
8.045899868011474609e-02 1.363800000399351120e-02 2.463449984788894653e-01
