-7.726100087165832520e-02 -1.515499968081712723e-02 1.743900030851364136e-02
2.498999936506152153e-03 -1.721699908375740051e-02 1.909790039062500000e-01
-5.820000078529119492e-03 4.034699872136116028e-02 -2.515299990773200989e-02
4.123799875378608704e-02 1.996500045061111450e-02 3.218770027160644531e-01
1.016199961304664612e-02 5.411199852824211121e-02 1.021180003881454468e-01
-1.604820042848587036e-01 1.189500000327825546e-02 4.013099893927574158e-02
1.168799959123134613e-02 5.003200098872184753e-02 -2.827900089323520660e-02
1.583999954164028168e-03 1.017189994454383850e-01 3.776600062847137451e-01
2.969600073993206024e-02 2.659500017762184143e-02 1.427990049123764038e-01
-9.081500023603439331e-02 2.805499918758869171e-02 3.333500027656555176e-01
-2.796199917793273926e-02 3.070800006389617920e-02 1.706759929656982422e-01
2.869299985468387604e-02 2.901599928736686707e-02 7.911999709904193878e-03
-2.007459998130798340e-01 1.653500087559223175e-02 9.856200218200683594e-02
5.711799860000610352e-02 8.093999698758125305e-03 8.867999538779258728e-03
1.307819932699203491e-01 1.100299973040819168e-02 1.143390014767646790e-01
-8.748999983072280884e-02 -3.043299913406372070e-02 7.588000036776065826e-03
3.347900137305259705e-02 -2.851600013673305511e-02 4.654600098729133606e-02
-1.329299993813037872e-02 4.802799969911575317e-02 2.424409985542297363e-01
-9.685999713838100433e-03 5.554699897766113281e-02 1.639499962329864502e-01
-3.253000089898705482e-03 5.824400112032890320e-02 1.886119991540908813e-01
1.109999977052211761e-02 5.082499980926513672e-02 -3.786100074648857117e-02
3.075700066983699799e-02 8.311999961733818054e-03 -1.821980029344558716e-01
3.430100157856941223e-02 4.459999967366456985e-03 -1.970100030303001404e-02
1.474399957805871964e-02 7.542000152170658112e-03 3.461320102214813232e-01
2.182449996471405029e-01 2.359499968588352203e-02 1.038210019469261169e-01
-3.527419865131378174e-01 3.347999975085258484e-02 1.520289927721023560e-01
-7.185400277376174927e-02 8.423999883234500885e-03 8.991300314664840698e-02
-2.841099910438060760e-02 -3.710899874567985535e-02 3.736599907279014587e-02
-8.507999591529369354e-03 5.731699988245964050e-02 1.355639994144439697e-01
2.317499928176403046e-02 3.701100125908851624e-02 1.942300051450729370e-01
1.551300007849931717e-02 -1.348899956792593002e-02 2.542279958724975586e-01
2.858020067214965820e-01 2.645199932157993317e-02 1.371359974145889282e-01
-2.563600055873394012e-02 7.409999961964786053e-04 9.006699919700622559e-02
8.750499784946441650e-02 -4.894999787211418152e-03 2.687600068747997284e-02
-9.519899636507034302e-02 1.232399977743625641e-02 8.525600284337997437e-02
-1.195460036396980286e-01 1.541300024837255478e-02 6.035700067877769470e-02
-1.283499971032142639e-02 2.231100015342235565e-02 -2.352890074253082275e-01
-2.786700055003166199e-02 3.086899966001510620e-02 4.193099960684776306e-02
9.356000460684299469e-03 -1.603600010275840759e-02 1.221619993448257446e-01
-1.432500034570693970e-02 4.610700160264968872e-02 -8.747999556362628937e-03
2.209999971091747284e-02 3.106500022113323212e-02 3.152579963207244873e-01
1.390700042247772217e-01 1.514299958944320679e-02 3.531999886035919189e-02
-5.072600021958351135e-02 -3.240999998524785042e-03 7.912100106477737427e-02
5.691000074148178101e-02 9.521000087261199951e-03 3.064000047743320465e-02
-2.353999996557831764e-03 8.517900109291076660e-02 3.708159923553466797e-01
1.237460002303123474e-01 1.591099984943866730e-02 6.470800191164016724e-02
-2.236600033938884735e-02 -6.953999865800142288e-03 6.568200141191482544e-02
-8.902700245380401611e-02 -1.854399964213371277e-02 -3.191100060939788818e-02
-5.558200180530548096e-02 6.448999978601932526e-03 -9.145000018179416656e-03
2.022499963641166687e-02 -1.010200008749961853e-02 -7.897999882698059082e-02
-2.318299934267997742e-02 2.316999947652220726e-03 8.040799945592880249e-02
3.129899874329566956e-02 7.238999940454959869e-03 7.518099993467330933e-02
-3.135000169277191162e-02 7.837999612092971802e-03 2.268829941749572754e-01
8.724100142717361450e-02 9.987999685108661652e-03 9.342800080776214600e-02
2.339600026607513428e-02 3.672299906611442566e-02 3.210400044918060303e-02
-1.411100011318922043e-02 -1.405800040811300278e-02 1.243269965052604675e-01
2.339850068092346191e-01 2.366599999368190765e-02 9.044200181961059570e-02
1.995800063014030457e-02 4.503999836742877960e-03 -2.231670022010803223e-01
5.918600037693977356e-02 7.497999817132949829e-03 8.129400014877319336e-02
-2.920000115409493446e-04 -1.750399917364120483e-02 4.535499960184097290e-02
2.775299921631813049e-02 3.105299919843673706e-02 6.561499834060668945e-02
-2.756699919700622559e-02 -2.823299914598464966e-02 4.174600169062614441e-02
-2.265799976885318756e-02 -8.216000162065029144e-03 7.596299797296524048e-02
-2.515000058338046074e-03 -1.721199974417686462e-02 6.266699731349945068e-02
2.242599986493587494e-02 -8.414999581873416901e-03 7.525300234556198120e-02
3.037700057029724121e-02 4.403000231832265854e-03 -1.510239988565444946e-01
6.564000155776739120e-03 3.905300050973892212e-02 3.552460074424743652e-01
7.968799769878387451e-02 2.575399912893772125e-02 3.316549956798553467e-01
4.136500135064125061e-02 4.741000011563301086e-03 8.284199982881546021e-02
-1.922760009765625000e-01 -1.258799992501735687e-02 5.548899993300437927e-02
1.882719993591308594e-01 1.548399962484836578e-02 9.873700141906738281e-02
1.270399987697601318e-02 4.921599850058555603e-02 1.391510069370269775e-01
-5.102999974042177200e-03 5.640299990773200989e-02 -5.204800143837928772e-02
-7.127600163221359253e-02 7.364000193774700165e-03 -2.497999928891658783e-03
3.190999850630760193e-02 1.748299971222877502e-02 1.851300001144409180e-01
7.528000045567750931e-03 3.038400039076805115e-02 -2.949400059878826141e-02
-1.216599997133016586e-02 3.665899857878684998e-02 -2.149689942598342896e-01
-2.245599962770938873e-02 -8.371000178158283234e-03 -7.864599674940109253e-02
3.145400062203407288e-02 2.094100043177604675e-02 2.176730036735534668e-01
-2.102780044078826904e-01 2.293300069868564606e-02 9.940099716186523438e-02
1.231319978833198547e-01 6.744999904185533524e-03 7.687299698591232300e-02
-5.299999975250102580e-05 1.328590065240859985e-01 3.865279853343963623e-01
-1.940770000219345093e-01 2.047700062394142151e-02 7.149100303649902344e-02
3.085399977862834930e-02 5.553000140935182571e-03 1.463119983673095703e-01
8.857800066471099854e-02 1.735000056214630604e-03 6.932000070810317993e-02
-7.559700310230255127e-02 -1.758299954235553741e-02 -3.718100115656852722e-02
-3.188899904489517212e-02 1.742699928581714630e-02 7.285200059413909912e-02
-9.374000132083892822e-03 5.560800060629844666e-02 -5.392999853938817978e-03
-1.731559932231903076e-01 7.734999991953372955e-03 4.029599949717521667e-02
4.184700176119804382e-02 7.329000160098075867e-03 1.058399956673383713e-02
2.200499922037124634e-02 -8.737999945878982544e-03 8.575999736785888672e-02
-6.775899976491928101e-02 -1.194000011309981346e-03 2.723000012338161469e-03
9.709300100803375244e-02 1.100299973040819168e-02 1.482299994677305222e-02
9.463000297546386719e-02 3.745000110939145088e-03 9.163299947977066040e-02
2.893390059471130371e-01 2.682700008153915405e-02 1.486310064792633057e-01
1.579299941658973694e-02 -1.337399985641241074e-02 -8.829499781131744385e-02
-1.797899976372718811e-02 -5.439999978989362717e-03 -2.085539996623992920e-01
-3.225409984588623047e-01 3.032100014388561249e-02 1.508640050888061523e-01
1.722899973392486572e-01 7.395999971777200699e-03 5.269499868154525757e-02
-4.745999816805124283e-03 5.804799869656562805e-02 1.733150035142898560e-01
-2.340600080788135529e-02 3.667499870061874390e-02 1.646610051393508911e-01
1.636400073766708374e-02 3.813799843192100525e-02 3.130649924278259277e-01
-8.838099986314773560e-02 1.219900045543909073e-02 3.836100175976753235e-02
-1.160200033336877823e-02 5.128699913620948792e-02 3.300999989733099937e-03
1.002859994769096375e-01 -1.325500011444091797e-02 -2.834199927747249603e-02
-1.228499971330165863e-02 5.164000019431114197e-02 1.736599951982498169e-01
-1.170599982142448425e-01 1.419499982148408890e-02 4.188200086355209351e-02
-3.031099960207939148e-02 4.310999996960163116e-03 1.447879970073699951e-01
-1.376099977642297745e-02 4.942199960350990295e-02 1.338959932327270508e-01
1.167989969253540039e-01 1.288400031626224518e-02 2.356199920177459717e-02
1.034600008279085159e-02 5.326000042259693146e-03 -2.395810037851333618e-01
3.720000013709068298e-02 -3.150900080800056458e-02 2.547599934041500092e-02
1.892610043287277222e-01 4.447000101208686829e-03 3.112700022757053375e-02
-2.559100091457366943e-02 -4.476000089198350906e-03 1.802880018949508667e-01
-1.406030058860778809e-01 1.538900006562471390e-02 3.753399848937988281e-02
-5.803999956697225571e-03 -1.677899993956089020e-02 -1.340479999780654907e-01
-2.184839993715286255e-01 2.405299991369247437e-02 1.155920028686523438e-01
-2.676000073552131653e-02 8.445000275969505310e-03 -2.060229927301406860e-01
-5.212900042533874512e-02 -7.929999846965074539e-04 2.537900023162364960e-02
1.405500024557113647e-01 1.205500029027462006e-02 1.118149980902671814e-01
5.342299863696098328e-02 2.264500036835670471e-02 3.097530007362365723e-01
3.222800046205520630e-02 1.427999977022409439e-02 5.485200136899948120e-02
-1.065900027751922607e-01 7.536999881267547607e-03 1.126620024442672729e-01
9.922999888658523560e-03 -1.580199971795082092e-02 6.440500169992446899e-02
2.156200073659420013e-02 4.461500048637390137e-02 -1.366820037364959717e-01
-6.718599796295166016e-02 9.297999553382396698e-03 1.679800078272819519e-02
2.270900085568428040e-02 8.750000037252902985e-03 3.180699944496154785e-01
-3.490000031888484955e-03 -1.708300039172172546e-02 1.253059953451156616e-01
1.226400025188922882e-02 5.006299912929534912e-02 2.050939947366714478e-01
-4.500100016593933105e-02 -9.699999936856329441e-04 -3.295399993658065796e-02
2.801699936389923096e-01 2.857399918138980865e-02 1.449380069971084595e-01
5.280200019478797913e-02 -9.309999877586960793e-04 2.701300010085105896e-02
-2.913070023059844971e-01 2.723499946296215057e-02 1.136519983410835266e-01
3.782499954104423523e-02 -3.828300163149833679e-02 1.820399984717369080e-02
9.549999958835542202e-04 5.449000000953674316e-02 3.795930147171020508e-01
-4.515299946069717407e-02 -3.969999961555004120e-03 6.718900054693222046e-02
-1.005499996244907379e-02 -1.573500037193298340e-02 1.003580018877983093e-01
2.202600054442882538e-02 1.983400061726570129e-02 -1.330699957907199860e-02
3.297600150108337402e-02 -6.670000148005783558e-04 4.767899960279464722e-02
-2.370999939739704132e-02 -6.922999862581491470e-03 1.108269989490509033e-01
2.945060133934020996e-01 2.864800021052360535e-02 1.209819987416267395e-01
-3.150200098752975464e-02 1.989999972283840179e-02 -1.784790009260177612e-01
-7.352200150489807129e-02 -1.446000020951032639e-02 -8.504999801516532898e-03
3.118499927222728729e-02 6.374000106006860733e-03 2.638069987297058105e-01
-2.816499955952167511e-02 -8.640000014565885067e-04 -1.117929965257644653e-01
1.073789969086647034e-01 1.218899991363286972e-02 2.227699942886829376e-02
-5.889999866485595703e-02 8.985999971628189087e-03 5.533900111913681030e-02
1.509600039571523666e-02 -1.366200018674135208e-02 1.992500014603137970e-02
1.451199948787689209e-01 1.620999909937381744e-02 4.493200033903121948e-02
-7.634399831295013428e-02 1.140000022132880986e-04 2.599300071597099304e-02
-1.145699992775917053e-02 5.156400054693222046e-02 2.534050047397613525e-01
2.473700046539306641e-02 3.917000070214271545e-02 -1.578200012445449829e-01
-3.252019882202148438e-01 3.126600012183189392e-02 1.374730020761489868e-01
-3.162269890308380127e-01 2.889800071716308594e-02 1.342799961566925049e-01
-1.476300042122602463e-02 -1.378799974918365479e-02 -7.830899953842163086e-02
-1.532530039548873901e-01 1.310000009834766388e-02 3.418599814176559448e-02
2.167399972677230835e-02 -7.025999948382377625e-03 2.946799993515014648e-02
-1.412899978458881378e-02 -1.405000034719705582e-02 -1.398559957742691040e-01
5.415700003504753113e-02 -2.771999919787049294e-03 1.122600026428699493e-02
1.452739983797073364e-01 1.169000007212162018e-02 2.883299998939037323e-02
-7.189899682998657227e-02 2.657699957489967346e-02 3.189150094985961914e-01
-3.219899907708168030e-02 1.427299994975328445e-02 8.258700370788574219e-02
2.173599973320960999e-02 4.495299980044364929e-02 -1.499669998884201050e-01
4.352299869060516357e-02 -4.164999816566705704e-03 3.488999977707862854e-02
-1.357599999755620956e-02 -1.427900046110153198e-02 -1.270300000905990601e-01
-9.793999604880809784e-03 4.893200099468231201e-02 -1.949419975280761719e-01
-6.256199628114700317e-02 1.444000052288174629e-03 -1.680199988186359406e-02
-2.250299975275993347e-02 2.209000056609511375e-03 -2.945600077509880066e-02
-1.925210058689117432e-01 -6.744000129401683807e-03 6.609699875116348267e-02
-6.225299835205078125e-02 7.743000052869319916e-03 4.349999944679439068e-04
1.642819941043853760e-01 1.206300035119056702e-02 7.844900339841842651e-02
2.848700061440467834e-02 2.951099909842014313e-02 1.320459991693496704e-01
-1.338400039821863174e-02 2.990400046110153198e-02 3.652789890766143799e-01
-5.816699936985969543e-02 -9.209999814629554749e-03 2.279799990355968475e-02
-3.252600133419036865e-02 -5.623999983072280884e-03 3.819800168275833130e-02
3.133099898695945740e-02 -5.760999862104654312e-03 3.010400012135505676e-02
1.582499966025352478e-02 -1.336000021547079086e-02 -1.313200034201145172e-02
-7.533500343561172485e-02 -2.440799959003925323e-02 -3.020299971103668213e-02
1.673099957406520844e-02 8.607000112533569336e-03 -6.051000207662582397e-03
3.153900057077407837e-02 9.061000309884548187e-03 4.206499829888343811e-02
7.800000021234154701e-04 5.474599823355674744e-02 2.786250114440917969e-01
-2.777599915862083435e-02 3.118599951267242432e-02 -1.065810024738311768e-01
-1.124010011553764343e-01 7.449999917298555374e-03 1.045989990234375000e-01
-2.430599927902221680e-02 1.686399988830089569e-02 3.203079998493194580e-01
1.042250022292137146e-01 4.430999979376792908e-03 1.111899968236684799e-02
2.952699922025203705e-02 2.700299955904483795e-02 1.858900040388107300e-01
-2.603200078010559082e-02 -3.901999909430742264e-03 4.605999961495399475e-02
-1.225700043141841888e-02 5.026299878954887390e-02 2.178130000829696655e-01
4.370000096969306469e-04 9.857500344514846802e-02 4.024850130081176758e-01
2.927600033581256866e-02 2.761000022292137146e-02 9.542199969291687012e-02
1.285000005736947060e-03 1.079040020704269409e-01 3.868690133094787598e-01
-1.099499966949224472e-02 5.075899884104728699e-02 -6.941500306129455566e-02
-4.426100105047225952e-02 1.837000017985701561e-03 -2.351400069892406464e-02
1.521699968725442886e-02 -1.361200027167797089e-02 -2.455800026655197144e-02
-1.798070073127746582e-01 1.051700022071599960e-02 9.703700244426727295e-02
6.996200233697891235e-02 2.838099934160709381e-02 3.588159978389739990e-01
-1.932120025157928467e-01 -7.970000151544809341e-04 4.469000175595283508e-02
-1.052699983119964600e-02 5.416100099682807922e-02 1.827899962663650513e-01
-1.594500057399272919e-02 4.316899925470352173e-02 -4.183299839496612549e-02
-3.304000012576580048e-03 1.593999937176704407e-02 3.927049934864044189e-01
-1.373699959367513657e-02 -1.421200018376111984e-02 2.718400061130523682e-01
5.670000100508332253e-04 5.108899995684623718e-02 -1.946710050106048584e-01
-3.212099894881248474e-02 1.566899940371513367e-02 -1.038340032100677490e-01
1.346330046653747559e-01 1.581599935889244080e-02 4.888600111007690430e-02
-2.709740102291107178e-01 2.790099941194057465e-02 1.415510028600692749e-01
-4.250799864530563354e-02 7.069999817758798599e-03 5.042000114917755127e-02
-2.729009985923767090e-01 2.364400029182434082e-02 1.057230010628700256e-01
2.497269958257675171e-01 2.201000042259693146e-02 1.171619966626167297e-01
-4.709500074386596680e-02 3.924999851733446121e-03 9.133800119161605835e-02
-1.305400021374225616e-02 -1.449500024318695068e-02 2.394389957189559937e-01
1.299600023776292801e-02 5.379499867558479309e-02 -1.265269964933395386e-01
1.099629998207092285e-01 5.956999957561492920e-03 9.247200191020965576e-02
-1.718329936265945435e-01 -1.106599997729063034e-02 7.939200103282928467e-02
2.301599979400634766e-01 2.446500025689601898e-02 1.076250001788139343e-01
-1.151399966329336166e-02 5.145300179719924927e-02 2.281000018119812012e-01
-3.660399839282035828e-02 2.561200037598609924e-02 3.417850136756896973e-01
1.277799997478723526e-02 -1.709999982267618179e-03 3.222599923610687256e-01
-1.973299980163574219e-01 1.421099994331598282e-02 6.457000225782394409e-02
1.669429987668991089e-01 -1.243299990892410278e-02 5.712800100445747375e-02
-2.876999974250793457e-02 2.876199968159198761e-02 2.220059931278228760e-01
-2.140329927206039429e-01 1.822599954903125763e-02 1.067489981651306152e-01
2.149100042879581451e-02 3.947999794036149979e-03 6.183400005102157593e-02
-2.810500003397464752e-02 -1.007999991998076439e-03 1.908150017261505127e-01
-3.161299973726272583e-02 9.829999879002571106e-03 -6.730800122022628784e-02
-4.914999939501285553e-03 -3.671500086784362793e-02 -1.950169950723648071e-01
-1.497500017285346985e-02 -1.370000001043081284e-02 -8.674000389873981476e-03
3.586289882659912109e-01 3.421600162982940674e-02 1.830160021781921387e-01
1.204600036144256592e-01 1.599800027906894684e-02 7.352799922227859497e-02
-1.191390007734298706e-01 5.716999992728233337e-03 6.104800105094909668e-02
1.169129982590675354e-01 5.444999784231185913e-03 3.995500132441520691e-02
-9.243999607861042023e-03 5.139499902725219727e-02 2.763940095901489258e-01
2.562000043690204620e-02 -4.474999848753213882e-03 -5.796800181269645691e-02
-2.499100007116794586e-02 3.556000068783760071e-03 2.971490025520324707e-01
3.093699924647808075e-02 5.752000026404857635e-03 1.673849970102310181e-01
3.987200185656547546e-02 -4.643000196665525436e-03 7.058099657297134399e-02
3.597120046615600586e-01 3.429400175809860229e-02 1.696240007877349854e-01
-9.363999590277671814e-03 5.524799972772598267e-02 -1.030569970607757568e-01
-3.082000091671943665e-02 2.381700091063976288e-02 1.009839996695518494e-01
8.563499897718429565e-02 -3.144599869847297668e-02 -2.528199926018714905e-02
8.654000237584114075e-03 2.380999922752380371e-02 -2.368170022964477539e-01
7.699599862098693848e-02 -2.696700021624565125e-02 -1.552999950945377350e-03
-2.969860136508941650e-01 2.762000076472759247e-02 1.456570029258728027e-01
3.189300000667572021e-02 1.761299930512905121e-02 9.057000279426574707e-02
-1.059980019927024841e-01 1.300199981778860092e-02 3.494900092482566833e-02
5.847999826073646545e-03 3.141500055789947510e-02 -1.362800039350986481e-02
1.192700024694204330e-02 2.118100039660930634e-02 3.752529919147491455e-01
1.387290060520172119e-01 8.302000351250171661e-03 5.698600038886070251e-02
3.164999932050704956e-02 1.945200003683567047e-02 1.222980022430419922e-01
-3.150700032711029053e-02 9.030000306665897369e-03 1.183639988303184509e-01
-6.830000202171504498e-04 5.858200043439865112e-02 1.138179972767829895e-01
-5.497999861836433411e-02 -2.683999948203563690e-03 6.479600071907043457e-02
-2.573000080883502960e-02 -3.807900100946426392e-02 7.315999828279018402e-03
-1.264919936656951904e-01 1.627000048756599426e-02 6.893700361251831055e-02
5.911000072956085205e-03 4.037100076675415039e-02 -4.878199845552444458e-02
1.373500004410743713e-02 2.027000067755579948e-03 -2.313079982995986938e-01
-1.489499956369400024e-02 4.771700128912925720e-02 9.169200062751770020e-02
-2.210489958524703979e-01 2.361699938774108887e-02 1.001949980854988098e-01
1.030700001865625381e-02 -1.564300060272216797e-02 -5.563100054860115051e-02
-2.040529996156692505e-01 2.232700027525424957e-02 1.223609969019889832e-01
-5.951400101184844971e-02 -3.222899883985519409e-02 1.446199975907802582e-02
-2.471739947795867920e-01 2.323199994862079620e-02 1.466989964246749878e-01
2.873699925839900970e-02 4.480000061448663473e-04 1.773650050163269043e-01
-8.539599925279617310e-02 1.059800013899803162e-02 8.815900236368179321e-02
6.750000175088644028e-03 5.598499998450279236e-02 -4.686500132083892822e-02
3.493100106716156006e-01 3.316500037908554077e-02 1.703570038080215454e-01
3.355900049209594727e-01 3.147599846124649048e-02 1.402000039815902710e-01
2.907899953424930573e-02 2.808500081300735474e-02 -1.572909951210021973e-01
8.984100073575973511e-02 -1.743800006806850433e-02 1.343800034373998642e-02
6.879600137472152710e-02 -8.549999911338090897e-04 4.369600117206573486e-02
1.829999964684247971e-03 5.993799865245819092e-02 -1.082589998841285706e-01
1.055200025439262390e-02 3.117400035262107849e-02 3.733400106430053711e-01
-6.463400274515151978e-02 -1.419999985955655575e-03 4.092499986290931702e-02
2.506929934024810791e-01 2.124300040304660797e-02 1.039540022611618042e-01
3.261399865150451660e-01 3.014699928462505341e-02 1.382900029420852661e-01
8.565999567508697510e-03 -1.636300049722194672e-02 2.470279932022094727e-01
-1.651299931108951569e-02 4.258999973535537720e-02 2.516199946403503418e-01
-1.913550049066543579e-01 -8.205999620258808136e-03 2.200100012123584747e-02
7.710099965333938599e-02 3.218000056222081184e-03 1.093669980764389038e-01
-3.150200098752975464e-02 2.036499977111816406e-02 2.543959915637969971e-01
5.821999907493591309e-02 9.305999614298343658e-03 4.526299983263015747e-02
-1.098699960857629776e-02 2.586700022220611572e-02 3.779120147228240967e-01
1.542400009930133820e-02 4.021799936890602112e-02 -5.390400066971778870e-02
1.300269961357116699e-01 8.186999708414077759e-03 8.380799740552902222e-02
1.590700075030326843e-02 4.304400086402893066e-02 1.456439942121505737e-01
2.559000067412853241e-02 -4.513999912887811661e-03 -9.892199933528900146e-02
8.505400270223617554e-02 -3.323999932035803795e-03 -8.396999910473823547e-03
-1.800999976694583893e-03 -2.907000016421079636e-03 -2.328570038080215454e-01
-2.801209986209869385e-01 2.580999955534934998e-02 1.350309997797012329e-01
1.866409927606582642e-01 3.831000067293643951e-03 2.199500054121017456e-02
3.058269917964935303e-01 2.895000018179416656e-02 1.663739979267120361e-01
7.324100285768508911e-02 -1.970699988305568695e-02 -7.104000076651573181e-03
-6.091999821364879608e-03 -1.153299957513809204e-02 2.950240075588226318e-01
2.657400071620941162e-02 -3.232999937608838081e-03 1.354919970035552979e-01
-1.581559926271438599e-01 1.276000030338764191e-02 9.702900052070617676e-02
1.572299934923648834e-02 4.339899867773056030e-02 1.773200035095214844e-01
2.278500050306320190e-02 3.749499842524528503e-02 6.097700074315071106e-02
-5.454999953508377075e-02 -1.971000107005238533e-03 8.978100121021270752e-02
-1.021500024944543839e-02 -1.566899940371513367e-02 2.303549945354461670e-01
1.042000018060207367e-02 5.361599847674369812e-02 2.584660053253173828e-01
-1.222570016980171204e-01 1.132799964398145676e-02 2.119700051844120026e-02
6.552999839186668396e-03 -1.668399944901466370e-02 -1.486870050430297852e-01
1.799740046262741089e-01 2.033199928700923920e-02 7.935500144958496094e-02
-2.285600081086158752e-02 3.333000000566244125e-03 6.999299675226211548e-02
2.970599941909313202e-02 2.657200023531913757e-02 2.391729950904846191e-01
3.430300056934356689e-01 3.243900090456008911e-02 1.529249995946884155e-01
-5.249999812804162502e-04 1.114419996738433838e-01 3.675279915332794189e-01
3.174600005149841309e-02 1.872500032186508179e-02 7.618299871683120728e-02
4.195100069046020508e-02 5.632000043988227844e-03 -1.120899990200996399e-02
3.819999983534216881e-03 5.817300081253051758e-02 2.521950006484985352e-01
1.674900017678737640e-02 -7.408000063151121140e-03 2.921499907970428467e-01
5.847999826073646545e-03 4.167800024151802063e-02 -3.147799894213676453e-02
3.163100033998489380e-02 1.959899999201297760e-02 1.055340021848678589e-01
-3.163800016045570374e-02 1.933499984443187714e-02 2.221599966287612915e-01
1.903049945831298828e-01 -1.134300045669078827e-02 2.186699956655502319e-02
-1.802000030875205994e-02 4.112499952316284180e-02 -3.159999905619770288e-04
-7.320199906826019287e-02 1.030400022864341736e-02 2.513800002634525299e-02
3.164299950003623962e-02 9.847999550402164459e-03 1.793439984321594238e-01
-9.628599882125854492e-02 2.240000059828162193e-03 1.745299994945526123e-02
-1.159650012850761414e-01 1.344600040465593338e-02 3.241200000047683716e-02
2.010400034487247467e-02 3.039800003170967102e-02 -5.207800120115280151e-02
9.826300293207168579e-02 -2.492200024425983429e-02 4.251000005751848221e-03
2.710739970207214355e-01 2.770500071346759796e-02 1.272940039634704590e-01
2.555019855499267578e-01 2.564699947834014893e-02 1.453209966421127319e-01
8.269999921321868896e-02 1.988000003620982170e-03 9.045100212097167969e-02
2.318399958312511444e-02 -7.643999997526407242e-03 -1.476400047540664673e-01
2.580999955534934998e-02 -4.226999823004007339e-03 -1.099150031805038452e-01
1.642159968614578247e-01 1.568399928510189056e-02 1.184789985418319702e-01
-3.145800158381462097e-02 8.657000027596950531e-03 2.531850039958953857e-01
-8.168099820613861084e-02 -2.881399914622306824e-02 -3.602400049567222595e-02
-1.592539995908737183e-01 1.730399951338768005e-02 4.934800043702125549e-02
4.040999803692102432e-03 -1.701500080525875092e-02 7.768499851226806641e-02
1.774830073118209839e-01 2.073800005018711090e-02 9.384799748659133911e-02
1.702200025320053101e-01 -1.379400026053190231e-02 2.343500033020973206e-02
-2.549000084400177002e-02 1.840000040829181671e-04 -1.954260021448135376e-01
-1.264750063419342041e-01 7.799999788403511047e-03 8.576399832963943481e-02
-3.150599822402000427e-02 9.019000455737113953e-03 -1.487119942903518677e-01
-2.349399961531162262e-02 -1.573500037193298340e-02 1.384199969470500946e-02
2.847419977188110352e-01 2.676199935376644135e-02 1.579239964485168457e-01
9.762500226497650146e-02 2.919000107795000076e-03 3.562600165605545044e-02
2.238200046122074127e-02 -8.449000306427478790e-03 -1.376129984855651855e-01
-1.918089985847473145e-01 1.535599958151578903e-02 9.243100136518478394e-02
3.767000045627355576e-03 -1.704999990761280060e-02 -1.167820021510124207e-01
-9.411200135946273804e-02 3.615000052377581596e-03 9.109699726104736328e-02
-3.196199983358383179e-02 1.248299982398748398e-02 -6.455000024288892746e-03
3.077699989080429077e-02 2.505600079894065857e-02 3.479740023612976074e-01
3.099999958067201078e-05 4.854499921202659607e-02 2.997480034828186035e-01
-3.054199926555156708e-02 6.432000081986188889e-03 2.767190039157867432e-01
2.593000046908855438e-02 3.606300055980682373e-02 -1.365900039672851562e-01
-2.459600009024143219e-02 3.512600064277648926e-02 1.057000011205673218e-01
5.012800171971321106e-02 2.675300091505050659e-02 3.194510042667388916e-01
3.834100067615509033e-02 -3.756399825215339661e-02 7.681999821215867996e-03
-2.816709876060485840e-01 2.573199942708015442e-02 1.085370033979415894e-01
-2.091399952769279480e-02 -9.552000090479850769e-03 1.739519983530044556e-01
-5.415799841284751892e-02 8.894000202417373657e-03 4.193000122904777527e-02
-5.568999797105789185e-03 -1.680999994277954102e-02 -1.954899914562702179e-02
-1.671160012483596802e-01 1.042000018060207367e-03 3.189999982714653015e-02
9.161000140011310577e-03 -1.611699908971786499e-02 1.020329967141151428e-01
1.101499982178211212e-02 5.172999948263168335e-02 -1.699599996209144592e-02
-6.957100331783294678e-02 -7.730000070296227932e-04 5.946499854326248169e-02
8.628000319004058838e-02 4.980000201612710953e-03 1.100979968905448914e-01
7.926700264215469360e-02 5.159999709576368332e-04 1.639300025999546051e-02
-1.153549998998641968e-01 3.193999826908111572e-02 3.601700067520141602e-01
-2.956550121307373047e-01 2.711500041186809540e-02 1.345230042934417725e-01
3.056100010871887207e-02 1.753699965775012970e-02 -1.861290037631988525e-01
-1.450860053300857544e-01 1.146300043910741806e-02 9.996200352907180786e-02
-3.405390083789825439e-01 3.222300112247467041e-02 1.637150049209594727e-01
2.749799937009811401e-02 -2.031000098213553429e-03 1.950300037860870361e-01
-3.155300021171569824e-02 9.374000132083892822e-03 -7.865100353956222534e-02
3.783600032329559326e-02 5.962000228464603424e-03 6.405399739742279053e-02
-2.699200063943862915e-02 -2.652999944984912872e-03 1.555770039558410645e-01
-1.662600040435791016e-02 2.137699909508228302e-02 3.600670099258422852e-01
5.495100095868110657e-02 -2.668000059202313423e-03 3.630600124597549438e-02
-2.589999930933117867e-03 -1.720199920237064362e-02 -1.004000008106231689e-02
-2.863200008869171143e-02 2.619999868329614401e-04 -6.258500367403030396e-02
-2.203099988400936127e-02 -6.998000200837850571e-03 2.673899941146373749e-02
-7.948400080204010010e-02 1.173800043761730194e-02 4.399599879980087280e-02
-7.577999960631132126e-03 -1.654599979519844055e-02 1.610099971294403076e-01
-3.000839948654174805e-01 2.686199918389320374e-02 1.244029998779296875e-01
-2.725999988615512848e-02 -3.684600070118904114e-02 4.668999835848808289e-02
-1.563660055398941040e-01 1.105399988591670990e-02 7.375100255012512207e-02
-1.787699945271015167e-02 3.453999990597367287e-03 -2.270569950342178345e-01
-1.061000023037195206e-02 -1.550600025802850723e-02 -1.519100069999694824e-01
9.806600213050842285e-02 -2.647699974477291107e-02 -7.548999972641468048e-03
4.470000043511390686e-02 -4.011000040918588638e-03 2.140000090003013611e-02
-2.465699985623359680e-02 3.755399957299232483e-02 -1.764640063047409058e-01
-1.661100052297115326e-02 4.333699867129325867e-02 -1.981379985809326172e-01
1.995359957218170166e-01 1.663699932396411896e-02 1.014700010418891907e-01
6.153999827802181244e-03 1.546899974346160889e-02 -6.088500097393989563e-02
-1.962500065565109253e-02 1.008199993520975113e-02 3.336009979248046875e-01
-4.035500064492225647e-02 7.439999841153621674e-03 3.366300091147422791e-02
3.204799816012382507e-02 1.292099989950656891e-02 1.689499989151954651e-02
1.618699915707111359e-02 4.255099967122077942e-02 -1.249200012534856796e-02
-2.817700058221817017e-02 2.202199958264827728e-02 -1.966760009527206421e-01
1.389299985021352768e-02 4.692500084638595581e-02 7.935400307178497314e-02
-2.760699950158596039e-02 3.120600059628486633e-02 -5.441199988126754761e-02
-1.665470004081726074e-01 1.825400069355964661e-02 5.803199857473373413e-02
-2.186999889090657234e-03 5.005099996924400330e-02 3.635019958019256592e-01
1.891300082206726074e-02 2.937399968504905701e-02 3.382650017738342285e-01
-1.805289983749389648e-01 1.337699964642524719e-02 7.733400166034698486e-02
-8.122300356626510620e-02 3.731000004336237907e-03 1.091570034623146057e-01
-2.198700048029422760e-02 3.993399813771247864e-02 -8.306899666786193848e-02
5.119799822568893433e-02 6.393999792635440826e-03 -8.754000067710876465e-03
-3.045300021767616272e-02 2.470199950039386749e-02 1.884319931268692017e-01
1.033500023186206818e-02 -1.563099958002567291e-02 2.168329954147338867e-01
2.817500010132789612e-02 3.026299923658370972e-02 1.743119955062866211e-01
2.932200022041797638e-02 2.749899961054325104e-02 2.904500067234039307e-02
-2.115999907255172729e-02 -9.363999590277671814e-03 2.495979964733123779e-01
-3.206200152635574341e-02 1.323799975216388702e-02 -1.287489980459213257e-01
-3.046499937772750854e-02 2.467299997806549072e-02 1.633359938859939575e-01
5.861999839544296265e-02 -2.928899973630905151e-02 1.578300073742866516e-02
-2.961999922990798950e-02 2.644999884068965912e-03 6.217499822378158569e-02
-1.936179995536804199e-01 -2.745999954640865326e-03 5.458699911832809448e-02
2.490000100806355476e-03 -1.721799932420253754e-02 2.512300014495849609e-02
-2.877149879932403564e-01 2.910600043833255768e-02 1.437799930572509766e-01
2.219600044190883636e-02 -8.590999990701675415e-03 -1.732839941978454590e-01
-7.190100103616714478e-02 8.857999928295612335e-03 7.460999768227338791e-03
-3.174100071191787720e-02 -1.145599968731403351e-02 7.674000225961208344e-03
1.772429943084716797e-01 1.222299970686435699e-02 7.511100172996520996e-02
2.697500027716159821e-02 3.206599876284599304e-02 2.597689926624298096e-01
1.538600027561187744e-02 2.959300018846988678e-02 3.577780127525329590e-01
-1.871230006217956543e-01 4.507000092417001724e-03 6.896100193262100220e-02
9.536799788475036621e-02 -5.588000174611806870e-03 -5.394000094383955002e-03
-9.698899835348129272e-02 2.817000029608607292e-03 5.608300119638442993e-02
1.790600083768367767e-02 3.050499968230724335e-02 -1.317299995571374893e-02
1.369899976998567581e-02 1.900600083172321320e-02 -8.360000327229499817e-03
-2.084700018167495728e-02 3.962400183081626892e-02 2.322919964790344238e-01
1.326599996536970139e-02 1.886899955570697784e-02 -2.355900034308433533e-02
-3.206599876284599304e-02 1.326999999582767487e-02 -1.666319966316223145e-01
-2.954199910163879395e-02 2.689900062978267670e-02 -1.194999963045120239e-01
7.665800303220748901e-02 1.101799961179494858e-02 6.227700039744377136e-02
1.639999973122030497e-04 5.865399911999702454e-02 3.962599858641624451e-02
-3.494299948215484619e-02 -5.307000130414962769e-03 6.190999969840049744e-02
-5.247600004076957703e-02 8.871999569237232208e-03 2.280000038444995880e-02
8.922999724745750427e-03 5.028200149536132812e-02 2.772719860076904297e-01
-1.037229970097541809e-01 4.616000223904848099e-03 8.595799654722213745e-02
-2.243299968540668488e-02 3.774400055408477783e-02 7.695999927818775177e-03
-2.138999989256262779e-03 2.047700062394142151e-02 4.057759940624237061e-01
8.178999647498130798e-03 -1.647000014781951904e-02 1.792590022087097168e-01
-1.689510047435760498e-01 -1.450399961322546005e-02 4.832199960947036743e-02
-3.650000144261866808e-04 -1.749400049448013306e-02 2.545349895954132080e-01
2.200900018215179443e-02 1.395300030708312988e-02 -5.568899959325790405e-02
2.873199991881847382e-02 4.360000020824372768e-04 1.551579982042312622e-01
6.843999959528446198e-03 5.777499824762344360e-02 2.328660041093826294e-01
-2.309400029480457306e-02 3.708099946379661560e-02 2.218160033226013184e-01
-1.142099965363740921e-02 5.293900147080421448e-02 5.733099952340126038e-02
3.196100145578384399e-02 -5.679000169038772583e-03 3.484999993816018105e-03
-3.670899942517280579e-02 -1.845799945294857025e-02 1.523800007998943329e-02
-2.050600014626979828e-02 3.664299845695495605e-02 2.956900000572204590e-01
3.004400059580802917e-02 3.599999938160181046e-03 1.305000041611492634e-03
2.728400006890296936e-02 -2.308999886736273766e-03 -7.097499817609786987e-02
-1.784799993038177490e-01 -1.962199993431568146e-02 4.416500031948089600e-02
-3.070499934256076813e-02 5.260000005364418030e-03 -4.170899838209152222e-02
2.101670056581497192e-01 1.806100085377693176e-02 1.090859994292259216e-01
-1.351500023156404495e-02 5.130099877715110779e-02 -8.542499691247940063e-02
-1.009199991822242737e-01 -2.121799997985363007e-02 -5.435999948531389236e-03
6.331000011414289474e-03 1.523500028997659683e-02 -3.320800140500068665e-02
-1.037489995360374451e-01 1.212299987673759460e-02 2.477899938821792603e-02
3.656199946999549866e-02 -1.126299984753131866e-02 1.301399990916252136e-02
-1.531379967927932739e-01 1.756599918007850647e-02 5.706200003623962402e-02
1.980420053005218506e-01 1.845099963247776031e-02 1.301369965076446533e-01
-2.456800043582916260e-01 2.099299989640712738e-02 1.073160022497177124e-01
1.098830029368400574e-01 1.457899995148181915e-02 8.059599995613098145e-02
-7.158000022172927856e-03 9.557999670505523682e-03 -3.967700153589248657e-02
2.176000038161873817e-03 5.965799838304519653e-02 -1.734959930181503296e-01
-1.475369930267333984e-01 1.818599924445152283e-02 7.713899761438369751e-02
-1.634299941360950470e-02 -9.395999833941459656e-03 -1.956190019845962524e-01
3.333299979567527771e-02 -4.550000187009572983e-03 9.238000214099884033e-02
-1.755110025405883789e-01 1.515199989080429077e-02 4.650999978184700012e-02
-3.361399844288825989e-02 1.803800091147422791e-02 3.108319938182830811e-01
-2.378400042653083801e-02 -6.827000062912702560e-03 -1.178719997406005859e-01
2.166150063276290894e-01 1.946900039911270142e-02 7.045599818229675293e-02
2.123799920082092285e-02 4.467200115323066711e-02 -1.270979940891265869e-01
-1.103399973362684250e-02 5.850800126791000366e-02 -1.653469949960708618e-01
-1.661599986255168915e-02 -1.284599956125020981e-02 1.559939980506896973e-01
1.066349968314170837e-01 4.098999779671430588e-03 6.534200161695480347e-02
2.610000083222985268e-04 6.140099838376045227e-02 -1.229090020060539246e-01
3.141500055789947510e-02 2.123600058257579803e-02 -3.764399886131286621e-02
-1.999000087380409241e-03 8.063399791717529297e-02 3.508909940719604492e-01
-1.743900030851364136e-02 5.220099911093711853e-02 -1.617829948663711548e-01
-1.162500027567148209e-02 5.263299867510795593e-02 1.152099967002868652e-01
-8.508200198411941528e-02 1.258000032976269722e-03 4.550199955701828003e-02
-1.042909994721412659e-01 3.128800168633460999e-02 3.696019947528839111e-01
1.258000032976269722e-03 4.508100077509880066e-02 3.725189864635467529e-01
1.500560045242309570e-01 1.034799963235855103e-02 7.422500103712081909e-02
3.519159853458404541e-01 3.347900137305259705e-02 1.498450040817260742e-01
-2.041199989616870880e-02 3.974800184369087219e-02 2.435780018568038940e-01
-2.956699952483177185e-02 2.683999948203563690e-02 -4.624899849295616150e-02
2.509219944477081299e-01 2.645399980247020721e-02 1.265799999237060547e-01
-2.204200066626071930e-02 3.804399818181991577e-02 7.349000126123428345e-02
-3.729499876499176025e-02 -2.386000007390975952e-03 -3.835599869489669800e-02
9.623499959707260132e-02 -2.035400085151195526e-02 2.043700031936168671e-02
2.082269936800003052e-01 2.155599929392337799e-02 7.742200046777725220e-02
1.576620042324066162e-01 1.301699969917535782e-02 1.013780012726783752e-01
-2.804899960756301880e-02 3.049799986183643341e-02 4.222000017762184143e-03
-1.158600021153688431e-02 -1.929000020027160645e-03 3.245640099048614502e-01
2.811199985444545746e-02 -1.060000038705766201e-03 1.010190024971961975e-01
9.831699728965759277e-02 -2.130700089037418365e-02 -3.780199959874153137e-02
3.214899823069572449e-02 -5.654000211507081985e-03 7.953999936580657959e-02
-2.293499931693077087e-02 4.176700115203857422e-02 -1.035770028829574585e-01
-6.569999968633055687e-04 1.203299984335899353e-01 3.856489956378936768e-01
-1.850299909710884094e-02 1.558599993586540222e-02 -6.180000025779008865e-03
-3.181700035929679871e-02 1.137700024992227554e-02 2.164600044488906860e-01
2.241099998354911804e-02 3.624200075864791870e-02 2.838810086250305176e-01
-1.704799942672252655e-02 4.330300167202949524e-02 5.465900152921676636e-02
1.251450031995773315e-01 1.399299968034029007e-02 3.168800100684165955e-02
-3.601250052452087402e-01 3.429299965500831604e-02 1.836799979209899902e-01
-1.655890047550201416e-01 -4.629999864846467972e-03 5.908399820327758789e-02
1.713399961590766907e-02 3.325400128960609436e-02 -2.144159972667694092e-01
3.393760025501251221e-01 3.239300101995468140e-02 1.781059950590133667e-01
-3.137699887156486511e-02 2.131200022995471954e-02 2.426670044660568237e-01
-3.138500079512596130e-02 8.105999790132045746e-03 1.889329999685287476e-01
-9.652300179004669189e-02 1.362300012260675430e-02 5.933700129389762878e-02
8.911999873816967010e-03 5.652099847793579102e-02 6.814400106668472290e-02
-1.209199987351894379e-02 5.387600138783454895e-02 -1.788789927959442139e-01
4.213999956846237183e-03 3.531900048255920410e-02 3.788830041885375977e-01
1.307200044393539429e-01 1.617000065743923187e-02 5.764099955558776855e-02
6.393999792635440826e-03 5.619699880480766296e-02 -7.689200341701507568e-02
4.902600124478340149e-02 -1.183000043965876102e-03 -2.145900018513202667e-02
-1.652400009334087372e-02 4.751100018620491028e-02 -1.875309944152832031e-01
2.741999924182891846e-03 7.771900296211242676e-02 3.646570146083831787e-01
-9.200000204145908356e-05 1.062029972672462463e-01 4.090369939804077148e-01
3.344000084325671196e-03 5.140699818730354309e-02 2.878279983997344971e-01
-1.166739985346794128e-01 1.484499964863061905e-02 5.123699828982353210e-02
6.822899729013442993e-02 3.918000031262636185e-03 1.036740019917488098e-01
-1.517560034990310669e-01 1.787599921226501465e-02 1.028830036520957947e-01
-1.392500009387731552e-02 -6.907999981194734573e-03 3.012660145759582520e-01
-2.854800038039684296e-02 6.099999882280826569e-05 -7.327400147914886475e-02
8.241000026464462280e-02 1.145500037819147110e-02 7.010599970817565918e-02
-1.746120005846023560e-01 -1.843399927020072937e-02 5.706200003623962402e-02
1.315100025385618210e-02 1.604999974370002747e-02 -2.397660017013549805e-01
-8.779999916441738605e-04 6.197199970483779907e-02 -1.423889994621276855e-01
-2.870099991559982300e-02 2.892599999904632568e-02 -9.402099996805191040e-02
1.662700064480304718e-02 1.558199990540742874e-02 3.556280136108398438e-01
-7.691700011491775513e-02 2.553600072860717773e-02 3.442659974098205566e-01
-1.540100015699863434e-02 8.321000263094902039e-03 -5.319000035524368286e-02
8.798999711871147156e-03 4.413799941539764404e-02 3.100090026855468750e-01
-8.727800101041793823e-02 -5.260999780148267746e-03 2.768100053071975708e-02
7.379999849945306778e-03 1.650999998673796654e-03 3.451650142669677734e-01
7.326799631118774414e-02 -1.794400066137313843e-02 -2.889999933540821075e-02
1.211200002580881119e-02 5.035600066184997559e-02 3.023499995470046997e-02
-3.745999885722994804e-03 5.721100047230720520e-02 -7.021799683570861816e-02
-1.082799956202507019e-02 4.713999852538108826e-02 2.896749973297119141e-01
1.166599988937377930e-02 -1.508099958300590515e-02 1.893530040979385376e-01
2.066200040280818939e-02 -9.766999632120132446e-03 1.922360062599182129e-01
-1.352490037679672241e-01 1.552399992942810059e-02 1.016530022025108337e-01
-1.121750026941299438e-01 1.236100029200315475e-02 2.048199996352195740e-02
5.110599845647811890e-02 -2.314999932423233986e-03 9.084600210189819336e-02
1.642300002276897430e-02 1.533299963921308517e-02 -3.378799930214881897e-02
1.101899985224008560e-02 -7.724000141024589539e-03 3.031469881534576416e-01
1.286699995398521423e-02 -1.458400022238492966e-02 3.020000003743916750e-04
3.752999939024448395e-03 -9.395999833941459656e-03 -2.168280035257339478e-01
-1.747449934482574463e-01 3.984999842941761017e-03 7.715500146150588989e-02
-1.947600021958351135e-02 4.125399887561798096e-02 1.726890057325363159e-01
-1.043799985200166702e-02 -1.557699963450431824e-02 -1.654430031776428223e-01
1.741459965705871582e-01 -1.612300053238868713e-02 6.997799873352050781e-02
-2.964800037443637848e-02 2.711999928578734398e-03 -1.365499943494796753e-01
1.058300025761127472e-02 3.785999864339828491e-02 3.465740084648132324e-01
-2.388699911534786224e-02 9.127000346779823303e-03 -1.173499971628189087e-02
1.370999962091445923e-02 3.704100102186203003e-02 3.358690142631530762e-01
-8.820799738168716431e-02 3.891000058501958847e-03 1.020380035042762756e-01
-3.129300102591514587e-02 2.194399945437908173e-02 2.651030123233795166e-01
-1.780000020517036319e-04 1.302659958600997925e-01 4.094089865684509277e-01
-2.482780069112777710e-01 2.247199974954128265e-02 1.366389989852905273e-01
2.543899975717067719e-02 -4.710000008344650269e-03 6.629700213670730591e-02
1.084399968385696411e-02 -1.542100030928850174e-02 1.564510017633438110e-01
2.072699964046478271e-01 2.242900058627128601e-02 9.079500287771224976e-02
-9.408199787139892578e-02 1.300899963825941086e-02 4.817499965429306030e-02
2.856599912047386169e-02 3.600000127335079014e-05 1.114600002765655518e-01
1.219400018453598022e-02 -1.486200001090764999e-02 4.508500173687934875e-02
-3.919999871868640184e-04 1.258330047130584717e-01 4.009790122509002686e-01
7.712399959564208984e-02 -2.687199972569942474e-02 -2.669899910688400269e-02
-2.850000048056244850e-03 6.378600001335144043e-02 3.612290024757385254e-01
-2.163800038397312164e-02 5.429999902844429016e-03 2.346399985253810883e-02
3.052830100059509277e-01 2.810800075531005859e-02 1.367760002613067627e-01
-4.534500092267990112e-02 -1.126999966800212860e-03 1.078960001468658447e-01
-2.843599952757358551e-02 9.498000144958496094e-03 -1.968300044536590576e-01
2.300800010561943054e-02 3.722900152206420898e-02 2.426529973745346069e-01
-2.644499950110912323e-02 2.730700001120567322e-02 2.948749959468841553e-01
-1.505499985069036484e-02 -1.366700045764446259e-02 3.563600033521652222e-02
-1.311029940843582153e-01 1.630399934947490692e-02 6.067299842834472656e-02
1.472400035709142685e-02 -1.381599996238946915e-02 2.277960032224655151e-01
7.753399759531021118e-02 2.889999886974692345e-04 7.301200181245803833e-02
-2.660199999809265137e-02 2.228800021111965179e-02 -2.061199992895126343e-01
2.531000040471553802e-02 3.423399850726127625e-02 2.304459959268569946e-01
1.592919975519180298e-01 1.252700015902519226e-02 9.187100082635879517e-02
7.593400031328201294e-02 -1.850200071930885315e-02 1.378099992871284485e-02
2.718620002269744873e-01 2.734700031578540802e-02 1.177930012345314026e-01
-9.514900296926498413e-02 3.053599968552589417e-02 3.639169931411743164e-01
8.592999726533889771e-02 3.382999915629625320e-03 1.000220030546188354e-01
-2.167530059814453125e-01 1.941099949181079865e-02 7.032699882984161377e-02
-2.854599989950656891e-02 5.500000042957253754e-05 -9.617099910974502563e-02
1.421700045466423035e-02 3.759999945759773254e-02 -2.664200030267238617e-02
9.057500213384628296e-02 2.763400040566921234e-02 3.425289988517761230e-01
-1.020499970763921738e-02 5.397599935531616211e-02 2.648110091686248779e-01
-3.225599974393844604e-02 4.399000201374292374e-03 -1.967700012028217316e-02
7.551000267267227173e-02 1.031399983912706375e-02 7.669200003147125244e-02
2.313269972801208496e-01 2.174800075590610504e-02 1.418820023536682129e-01
-2.505600079894065857e-02 -3.619000082835555077e-03 -1.838169991970062256e-01
-2.480000071227550507e-02 -5.504999775439500809e-03 1.645299941301345825e-01
2.865899913012981415e-02 1.556800026446580887e-02 -6.759200245141983032e-02
2.163800001144409180e-01 1.770099997520446777e-02 9.565000236034393311e-02
-3.083699941635131836e-02 2.377600036561489105e-02 2.328390032052993774e-01
5.847999826073646545e-03 5.870999768376350403e-03 -6.217600032687187195e-02
-3.983300179243087769e-02 -4.666999913752079010e-03 8.000999689102172852e-03
-3.086899966001510620e-02 5.656000226736068726e-03 -5.318599939346313477e-02
8.891000412404537201e-03 5.656199902296066284e-02 9.314300119876861572e-02
-2.479999966453760862e-04 5.894400179386138916e-02 -6.095699965953826904e-02
-7.806999981403350830e-02 -2.799599990248680115e-02 -5.532999988645315170e-03
2.076060026884078979e-01 1.922000013291835785e-02 1.317110061645507812e-01
9.337200224399566650e-02 1.202999986708164215e-02 8.574000000953674316e-02
-2.303040027618408203e-01 2.408399991691112518e-02 9.886699914932250977e-02
2.359720021486282349e-01 2.539500035345554352e-02 1.331000030040740967e-01
-3.013600036501884460e-02 2.546700090169906616e-02 2.361599914729595184e-02
-2.040000073611736298e-02 4.656700044870376587e-02 -1.287389993667602539e-01
4.412499815225601196e-02 -4.085999913513660431e-03 4.927799850702285767e-02
-3.054499998688697815e-02 4.873999860137701035e-03 2.419659942388534546e-01
3.439999883994460106e-03 5.822300165891647339e-02 2.425069957971572876e-01
1.459399983286857605e-02 4.454600065946578979e-02 -4.442999884486198425e-02
-7.672999985516071320e-03 -1.653300039470195770e-02 8.058100193738937378e-02
2.853900007903575897e-02 2.404299937188625336e-02 2.897219955921173096e-01
2.765000052750110626e-02 2.476499974727630615e-02 3.066230118274688721e-01
1.268300041556358337e-02 -1.465999986976385117e-02 1.010099984705448151e-02
5.269999965094029903e-04 5.860599875450134277e-02 7.568799704313278198e-02
1.957499980926513672e-02 3.471200168132781982e-02 -3.388499841094017029e-02
-6.507299840450286865e-02 -1.362000009976327419e-03 5.099200084805488586e-02
-2.056000055745244026e-03 5.840200185775756836e-02 2.448599971830844879e-02
7.970999926328659058e-02 1.163399964570999146e-02 4.053099825978279114e-02
-7.000000216066837311e-03 1.265799999237060547e-02 -4.857499897480010986e-02
2.330599911510944366e-02 -1.690199971199035645e-02 4.998499900102615356e-02
-4.462699964642524719e-02 2.333999983966350555e-02 3.002850115299224854e-01
2.834190130233764648e-01 2.766400016844272614e-02 1.132460013031959534e-01
