ply
format ascii 1.0
comment PCL generated
element vertex 1067
property float x
property float y
property float z
property uchar red
property uchar green
property uchar blue
element camera 0
property float view_px
property float view_py
property float view_pz
property float x_axisx
property float x_axisy
property float x_axisz
property float y_axisx
property float y_axisy
property float y_axisz
property float z_axisx
property float z_axisy
property float z_axisz
property float focal
property float scalex
property float scaley
property float centerx
property float centery
property int viewportx
property int viewporty
property float k1
property float k2
end_header
1.1583529 -0.38547969 -0.5003528 37 83 57
1.1617656 -0.38556969 -0.5011518 40 87 61
1.1752759 -0.38715801 -0.50262141 37 86 58
1.1810318 -0.38390747 -0.50323439 36 85 56
1.1958778 -0.3843306 -0.50400001 36 85 56
1.2028935 -0.38528505 -0.50454372 47 95 69
1.2165109 -0.38537416 -0.5060249 37 85 59
1.2242615 -0.38624361 -0.50680941 43 89 61
1.2352691 -0.38419527 -0.50800002 41 90 61
1.2428756 -0.38786 -0.5096252 48 94 66
1.3265588 -0.38500991 -0.50999999 155 72 65
1.3358043 -0.38394237 -0.50999999 157 70 63
0.37899727 -0.37698898 -0.50998372 92 90 78
1.1584876 -0.37475386 -0.50023872 34 85 57
1.1662772 -0.37514707 -0.5016064 39 89 62
1.1765606 -0.3775866 -0.50272578 36 86 58
1.185629 -0.37778434 -0.50333583 37 87 58
1.1942699 -0.37396297 -0.50385916 36 86 57
1.2052372 -0.37602213 -0.50479549 38 87 60
1.2164818 -0.37346199 -0.50644213 37 87 60
1.2266269 -0.37527174 -0.50750107 40 89 62
1.2350485 -0.37329781 -0.50806642 41 91 61
1.2421166 -0.37541664 -0.50937223 37 87 59
1.3274242 -0.37244806 -0.50999999 157 68 62
1.3341494 -0.37452349 -0.50999999 150 61 55
0.37800333 -0.36424938 -0.50452167 90 90 80
1.162132 -0.3612822 -0.50052202 33 86 58
1.175125 -0.36477217 -0.50246859 32 86 58
1.1850955 -0.36637792 -0.50315273 37 87 58
1.1975671 -0.3645708 -0.50388986 38 88 59
1.2032948 -0.36699289 -0.50458831 32 82 53
1.2169446 -0.3654052 -0.50657231 35 86 58
1.2267603 -0.36844781 -0.50731641 38 88 61
1.2315469 -0.36313313 -0.50793481 39 86 59
1.2412636 -0.36816067 -0.50944352 33 87 61
1.3291453 -0.36550578 -0.50999999 156 62 60
1.33094 -0.3652696 -0.50999999 156 62 60
0.37763563 -0.35263798 -0.50764334 91 91 81
1.1668167 -0.35464904 -0.50116765 28 83 54
1.1756223 -0.35466132 -0.50186849 26 81 52
1.1852822 -0.35664362 -0.50296301 29 81 53
1.1960557 -0.35430866 -0.50326943 28 82 53
1.20331 -0.35267663 -0.50453877 25 78 48
1.2152508 -0.35612527 -0.50633389 36 86 58
1.2210761 -0.3573831 -0.5069744 35 85 58
1.2322239 -0.35420853 -0.50810075 30 84 56
1.2400215 -0.35761112 -0.50943166 34 88 64
1.3167121 -0.35398611 -0.50999999 158 69 63
1.3229685 -0.35784003 -0.50999999 158 67 62
0.37666404 -0.34412581 -0.50387061 92 91 86
1.1673245 -0.34522414 -0.50069374 24 79 50
1.1734929 -0.34565991 -0.50139332 27 82 53
1.1834661 -0.34406936 -0.50216633 27 83 54
1.1944623 -0.34547791 -0.50313115 28 83 54
1.2013766 -0.34157503 -0.50383377 26 81 52
1.2130048 -0.34287319 -0.50524849 34 84 55
1.2243178 -0.34656638 -0.50688624 29 84 55
1.2362549 -0.34532365 -0.50882161 27 83 54
1.2424288 -0.34986174 -0.50977552 33 88 59
1.3169061 -0.34398961 -0.50999999 167 72 66
1.3260134 -0.34490934 -0.50999999 157 61 60
1.3327867 -0.34674764 -0.50999999 152 57 55
0.37548509 -0.33507872 -0.50567621 89 89 80
1.1683224 -0.33268139 -0.50026631 22 78 49
1.1746289 -0.33522862 -0.50121808 25 81 52
1.1832299 -0.33676517 -0.50205791 25 80 52
1.1954236 -0.33455881 -0.50283784 27 84 55
1.2046565 -0.33477786 -0.50378937 27 83 54
1.219522 -0.33970892 -0.50608027 23 82 52
1.229573 -0.33055007 -0.50762665 26 85 55
1.2345406 -0.33126038 -0.50850809 25 85 56
1.2420721 -0.33487737 -0.50972456 25 83 54
1.3256223 -0.33478913 -0.50999999 159 63 59
0.37427291 -0.32728893 -0.50785851 95 95 87
1.1758012 -0.3257136 -0.50069928 27 82 53
1.1879957 -0.32422704 -0.50149041 26 81 53
1.1966097 -0.32240576 -0.50226831 21 79 54
1.2037282 -0.32647458 -0.50344718 25 82 54
1.2178054 -0.32426551 -0.50567293 23 82 53
1.2229562 -0.32394159 -0.5064317 25 84 54
1.2331212 -0.32205549 -0.50795186 21 82 53
1.2449813 -0.32564262 -0.50980186 26 85 57
1.3103712 -0.32077965 -0.50999999 147 64 60
1.3255434 -0.32405224 -0.50999999 163 65 60
0.37220129 -0.31520528 -0.50484961 93 93 83
1.1768739 -0.31516778 -0.5005728 26 82 53
1.1842064 -0.31578785 -0.50116968 25 81 53
1.1979091 -0.31928152 -0.50248486 22 78 53
1.2087454 -0.31925213 -0.50371611 24 83 55
1.2164195 -0.31375682 -0.50485682 23 83 53
1.2255231 -0.31647176 -0.5064823 18 79 48
1.2365662 -0.31641212 -0.50793946 19 81 52
1.2425556 -0.31985989 -0.50927961 20 80 54
1.2530273 -0.31853575 -0.50999999 32 88 59
1.3071517 -0.31740725 -0.50999999 173 55 55
1.3166673 -0.31896269 -0.50999999 171 69 67
1.3258698 -0.31382915 -0.50999999 163 64 59
0.37119365 -0.30612996 -0.50387305 98 96 84
1.1773877 -0.30359635 -0.50019085 22 81 53
1.1835743 -0.3063651 -0.50076103 20 78 50
1.1951747 -0.30495241 -0.5012033 17 77 49
1.2053058 -0.30482438 -0.5021717 21 80 52
1.2168882 -0.30541772 -0.50454921 22 82 51
1.2233595 -0.30278608 -0.50540996 18 80 49
1.2363222 -0.3068164 -0.50761747 21 81 53
1.2434574 -0.30672809 -0.5087952 22 83 54
1.2561189 -0.30580032 -0.50993222 23 82 53
1.3090388 -0.30242309 -0.50999999 157 54 49
1.3137164 -0.30378842 -0.50999999 160 56 55
1.3245502 -0.30492821 -0.50999999 162 62 59
0.36969918 -0.29187191 -0.50304711 101 99 88
0.37021992 -0.29816091 -0.5035094 100 98 88
1.1897995 -0.29647952 -0.50060475 14 74 46
1.1940422 -0.29493874 -0.50102615 19 80 54
1.2046603 -0.29359993 -0.50207835 18 78 51
1.2190294 -0.29697773 -0.50433177 21 82 51
1.224133 -0.29180306 -0.5052157 24 79 57
1.235695 -0.29624614 -0.50679153 18 80 48
1.2416656 -0.29481944 -0.50776529 41 98 72
1.2501011 -0.29743534 -0.50930893 23 83 57
1.3052485 -0.29485726 -0.50999999 153 51 47
1.3267713 -0.29700983 -0.50999999 157 57 55
0.36915246 -0.28548139 -0.50255418 100 96 86
1.1866041 -0.28478926 -0.50026041 16 79 52
1.1950995 -0.28052104 -0.50112212 72 120 106
1.2041583 -0.2860606 -0.5019623 22 78 54
1.21691 -0.28731889 -0.50384068 19 78 51
1.2275345 -0.2803252 -0.50486618 119 150 145
1.2359508 -0.28230733 -0.50637412 82 120 110
1.243682 -0.28525734 -0.50809747 85 132 114
1.2551419 -0.28956789 -0.50973451 24 80 53
1.3061193 -0.2844981 -0.50928056 152 53 51
1.3120806 -0.28496367 -0.50996089 159 50 53
0.36818799 -0.27494532 -0.50428289 100 98 85
1.1921716 -0.27662307 -0.50080174 34 86 66
1.2035034 -0.27651468 -0.50161678 99 137 130
1.2148687 -0.27541575 -0.50347036 77 116 106
1.2247782 -0.27538288 -0.50426418 83 116 113
1.2433195 -0.27691633 -0.50714713 97 129 123
1.256158 -0.27470395 -0.50944716 20 76 50
1.303614 -0.27373794 -0.50997627 148 44 41
1.3147819 -0.27603567 -0.50994563 153 52 50
1.3276591 -0.27625996 -0.50999999 147 52 46
1.1857479 -0.26757833 -0.50008309 71 119 103
1.1961253 -0.26786563 -0.5009709 84 130 117
1.2034882 -0.26370081 -0.50120777 34 87 66
1.2119056 -0.26708248 -0.50256693 100 134 130
1.2235134 -0.26478514 -0.50377136 60 99 89
1.2341124 -0.26667237 -0.50480515 69 112 100
1.2434577 -0.26544988 -0.50639749 49 99 84
1.2543627 -0.26484111 -0.50800663 50 103 79
1.2614858 -0.2652916 -0.50999999 25 77 54
1.3069785 -0.26403368 -0.50999999 150 44 41
1.3108432 -0.26904541 -0.50999999 152 49 40
0.36665118 -0.2510812 -0.50338107 97 96 83
1.1937271 -0.25565144 -0.50019878 52 103 83
1.2044945 -0.25858799 -0.50109339 23 76 56
1.2153898 -0.25276452 -0.50285363 23 75 54
1.2245401 -0.25267065 -0.50387567 150 171 180
1.2369317 -0.25261948 -0.50457764 26 77 62
1.2426028 -0.25562271 -0.50562954 56 110 89
1.256758 -0.25824681 -0.50812906 52 100 82
1.2648466 -0.25474748 -0.50925773 29 80 59
1.3029848 -0.25484148 -0.50989479 147 45 40
1.3103724 -0.25328237 -0.50967765 151 43 40
0.36542276 -0.2445779 -0.50924569 100 99 81
1.1963984 -0.24562895 -0.50021803 75 122 110
1.2051812 -0.24968971 -0.50118119 26 75 56
1.2140266 -0.24609347 -0.50264549 193 209 223
1.2240765 -0.24180266 -0.50301802 196 205 230
1.2302101 -0.24772398 -0.50360739 192 201 230
1.2436526 -0.24419014 -0.50536233 93 128 127
1.2550403 -0.2458564 -0.50701326 131 169 160
1.263887 -0.24568738 -0.50889939 32 82 62
1.3065791 -0.24812637 -0.50924456 147 43 39
1.3126409 -0.24622531 -0.50983006 148 45 40
0.3652522 -0.23496002 -0.5049122 99 97 82
1.1983347 -0.23694262 -0.50039405 21 79 55
1.2042594 -0.23220098 -0.50101012 78 115 112
1.2166661 -0.23826587 -0.50294435 176 188 214
1.2251673 -0.23565069 -0.50300002 165 180 200
1.230487 -0.23544291 -0.5030812 183 199 225
1.2459391 -0.23581038 -0.50543332 118 150 154
1.2580578 -0.23934323 -0.50787365 40 91 74
1.2653064 -0.23337369 -0.5087353 35 88 66
1.3069916 -0.23612374 -0.50944114 148 44 40
0.36453205 -0.22835967 -0.50774366 104 103 85
1.2034922 -0.22504014 -0.50091928 19 80 54
1.2130461 -0.222718 -0.50258046 48 99 82
1.225922 -0.22419631 -0.50300002 72 118 106
1.2326636 -0.2269934 -0.50344396 68 107 106
1.2425218 -0.22421314 -0.50495815 88 126 123
1.2562784 -0.22581562 -0.50713122 63 110 97
1.2644603 -0.22561413 -0.50810862 22 80 55
1.2729909 -0.2239967 -0.50968218 22 76 50
1.3037645 -0.2243603 -0.50901103 152 45 41
1.3134724 -0.22407998 -0.50915509 150 42 37
0.36398116 -0.21475226 -0.50604004 102 100 83
1.1943642 -0.21507826 -0.50003308 90 143 125
1.2048969 -0.21589079 -0.50120169 19 80 53
1.2142435 -0.21333551 -0.50251466 35 88 68
1.225365 -0.2157743 -0.50300002 23 82 64
1.2339472 -0.21479276 -0.50365788 19 74 57
1.2447398 -0.21644905 -0.5050292 55 105 89
1.2558756 -0.2176194 -0.50710046 60 106 92
1.2647507 -0.21386875 -0.50802302 23 80 55
1.3036275 -0.21472529 -0.5087921 150 47 42
1.3143989 -0.21442606 -0.50906646 150 52 46
1.3230275 -0.2190859 -0.50997883 104 74 66
0.36340061 -0.20543842 -0.50662756 103 101 85
1.1978306 -0.20250317 -0.50001371 12 74 51
1.2058518 -0.20501234 -0.50121641 19 75 53
1.2106882 -0.2090283 -0.50194806 28 79 60
1.2248067 -0.20592123 -0.50300002 58 108 93
1.2348936 -0.20520794 -0.50381565 50 102 84
1.2454101 -0.2045147 -0.50520676 19 77 55
1.2564319 -0.20516717 -0.50714213 16 77 52
1.2653913 -0.20438537 -0.50800002 25 84 59
1.2759119 -0.20200329 -0.5093711 54 84 64
1.2836246 -0.2056115 -0.50999999 121 112 93
1.2943467 -0.20951843 -0.50969571 130 109 90
1.3039492 -0.20376775 -0.50874728 144 65 54
1.3138752 -0.20425808 -0.5088647 135 78 67
1.3237985 -0.20517753 -0.50989127 92 77 67
0.36309847 -0.19358112 -0.50534809 101 100 84
1.2060615 -0.19336593 -0.50098747 25 81 60
1.2154917 -0.19505452 -0.50274253 135 168 169
1.2253679 -0.19300382 -0.50300002 100 134 138
1.2388636 -0.19614169 -0.50447726 39 91 75
1.2459108 -0.1942981 -0.50529706 15 75 49
1.2572342 -0.19433562 -0.50722528 13 79 51
1.2653792 -0.19295375 -0.50800002 18 81 54
1.2756877 -0.19576725 -0.50933659 34 75 51
1.2815861 -0.19481383 -0.50999999 119 109 90
1.2954803 -0.19689758 -0.50959271 134 70 58
1.3062515 -0.19629431 -0.50843889 148 45 39
1.3130974 -0.19202015 -0.5081811 137 80 69
1.3243365 -0.19431581 -0.50977433 155 137 139
0.36305296 -0.18698008 -0.50383615 102 102 87
1.2064203 -0.18513547 -0.5005638 45 98 79
1.2166262 -0.18320192 -0.50279558 82 125 113
1.2258344 -0.18425436 -0.50300002 64 100 95
1.2331671 -0.18592623 -0.50329053 73 110 106
1.2447195 -0.18712984 -0.50488394 39 95 79
1.2553029 -0.18529047 -0.50659251 44 98 84
1.2637395 -0.1842708 -0.50786054 11 80 53
1.2747123 -0.18408892 -0.50918651 15 80 50
1.2830743 -0.18282467 -0.50999999 129 116 97
1.2946078 -0.18223302 -0.50967205 134 113 94
1.303669 -0.18456687 -0.5087499 148 43 36
1.3127269 -0.18522458 -0.50801724 142 44 37
1.3277743 -0.18505736 -0.50969845 203 180 185
0.36207899 -0.17653205 -0.50647801 99 99 83
1.2072325 -0.1772103 -0.50076747 36 85 76
1.2131181 -0.17672265 -0.50171357 161 192 197
1.2244252 -0.17350157 -0.5027377 99 128 135
1.2432103 -0.17419586 -0.50450873 87 130 127
1.2556263 -0.17430948 -0.50636142 124 169 162
1.2641541 -0.17559938 -0.50792605 7 80 51
1.2762706 -0.17454258 -0.50907719 40 86 62
1.284235 -0.17438251 -0.50983804 128 118 99
1.2966269 -0.17380209 -0.50948846 136 81 69
1.3041453 -0.1729667 -0.50869358 147 40 34
1.3143578 -0.17638025 -0.50814295 149 44 39
1.3251324 -0.17624447 -0.50902647 146 44 39
0.36164287 -0.16384295 -0.50690639 95 93 78
1.2124963 -0.16864833 -0.50109923 54 105 96
1.2250488 -0.16432413 -0.5027802 117 149 152
1.2346663 -0.16787268 -0.50342429 79 127 116
1.2435046 -0.16574088 -0.50450259 68 122 106
1.2549889 -0.16795349 -0.50627196 60 118 102
1.2635503 -0.16192648 -0.50771797 7 78 50
1.2747314 -0.16298525 -0.50907671 41 67 48
1.2820309 -0.16666019 -0.50987095 129 120 99
1.2945828 -0.16699427 -0.50965691 134 94 82
1.306686 -0.16679053 -0.50833058 150 41 37
1.3123075 -0.16535322 -0.50827044 150 41 35
1.3253152 -0.16656932 -0.50911725 146 43 38
0.36158475 -0.15566707 -0.50756544 92 91 76
1.2076808 -0.15252084 -0.50013614 200 214 240
1.2157844 -0.15650834 -0.50170785 131 164 170
1.2265756 -0.15273988 -0.50247401 123 149 159
1.2373641 -0.15523002 -0.5036695 129 168 167
1.2437443 -0.15653211 -0.50453681 47 108 86
1.2521632 -0.15540755 -0.5057959 19 65 57
1.2644475 -0.15423433 -0.50792432 7 82 53
1.2777004 -0.15082297 -0.5090158 62 72 59
1.2832375 -0.15337616 -0.5099287 130 123 106
1.2919645 -0.15515333 -0.50989878 123 118 100
1.307447 -0.15654565 -0.50822186 151 37 36
1.3161949 -0.15257038 -0.50883251 150 38 34
1.3277307 -0.15174331 -0.50945508 147 42 36
1.3333936 -0.15568388 -0.50997478 144 42 42
0.36123276 -0.14427279 -0.50513631 93 90 76
1.2114652 -0.14430816 -0.50060272 183 209 220
1.2256006 -0.14758448 -0.50201976 126 158 166
1.2341567 -0.14682825 -0.50289768 86 133 124
1.2444848 -0.14608876 -0.50402194 9 78 50
1.2534076 -0.14583395 -0.50582725 38 98 82
1.2651459 -0.14472683 -0.50790042 7 82 55
1.276328 -0.14727053 -0.50879449 15 45 33
1.2854162 -0.14456233 -0.5098272 129 123 105
1.3012472 -0.14404634 -0.50941968 167 41 46
1.3137441 -0.14569297 -0.50876629 155 37 35
1.3259429 -0.14267145 -0.50919116 152 39 36
1.3352211 -0.14272605 -0.50999999 153 74 79
0.361498 -0.1332919 -0.50505155 90 91 78
1.2161473 -0.13428941 -0.5010134 61 115 102
1.2262342 -0.13529664 -0.50186801 78 120 117
1.2381835 -0.13005561 -0.50353056 6 83 51
1.2439241 -0.13553394 -0.50400001 5 81 51
1.25279 -0.13257547 -0.50569624 44 108 85
1.2645339 -0.13373479 -0.50774229 9 82 56
1.2791147 -0.13546038 -0.50903821 63 66 55
1.2850499 -0.13597533 -0.50989687 132 128 108
1.2969053 -0.1382338 -0.50999999 119 116 97
1.3018759 -0.13394934 -0.50953418 164 40 40
1.3157705 -0.13139519 -0.50910485 159 36 36
1.3231206 -0.13254651 -0.50945294 158 38 37
1.3355396 -0.13933478 -0.50999999 149 36 38
0.36195517 -0.12694943 -0.50665241 91 92 78
1.2165145 -0.12409522 -0.50099301 13 81 58
1.2278188 -0.12357745 -0.50196457 36 98 78
1.2334676 -0.12458982 -0.50261128 14 77 56
1.2458107 -0.12641972 -0.50418818 58 118 101
1.2593238 -0.1247284 -0.50648993 7 83 53
1.2653518 -0.12413925 -0.50740784 4 83 53
1.2772026 -0.12529112 -0.50886178 3 26 14
1.2838688 -0.12516862 -0.50977588 126 120 104
1.2969503 -0.12422161 -0.50969446 67 18 9
1.3046081 -0.12593046 -0.50873506 156 50 47
1.3164374 -0.12359829 -0.50919479 160 34 34
1.3271705 -0.12456616 -0.50999999 158 36 37
0.36199999 -0.11504824 -0.50681579 91 92 78
1.2268367 -0.11463875 -0.5018968 8 81 52
1.2431484 -0.11675997 -0.50359976 8 80 55
1.2505643 -0.11222595 -0.50501841 5 85 60
1.2652698 -0.11461149 -0.50712466 2 81 50
1.2758167 -0.11446879 -0.50880653 41 93 67
1.2846379 -0.1139553 -0.50987399 124 124 101
1.3069426 -0.1113361 -0.509 170 35 39
1.3157427 -0.11554447 -0.50924426 165 31 34
1.32646 -0.11219004 -0.50996649 157 32 34
0.36213025 -0.10455339 -0.50647134 91 92 78
1.2126493 -0.10196009 -0.50016236 18 86 61
1.2276647 -0.10579984 -0.50193739 9 83 54
1.2357441 -0.10537437 -0.50296092 8 82 52
1.2442288 -0.10384289 -0.5037809 6 82 52
1.2551861 -0.10655017 -0.50594711 4 81 53
1.2666962 -0.10418811 -0.50733781 4 78 49
1.2781365 -0.10148406 -0.50889057 53 60 49
1.2891178 -0.10123304 -0.50999999 125 117 98
1.2930895 -0.1070812 -0.50981003 116 118 97
1.3040748 -0.10555142 -0.50924516 166 37 38
1.3167775 -0.10178579 -0.50997525 159 32 34
1.3260527 -0.10256121 -0.50999999 156 30 32
0.36255202 -0.094844341 -0.50495845 92 93 80
1.2138913 -0.097791873 -0.50047284 23 88 64
1.2248377 -0.096080437 -0.50171423 9 82 53
1.2357786 -0.095706701 -0.50274497 6 80 49
1.2454343 -0.094877601 -0.50398952 4 81 49
1.2527783 -0.095884152 -0.50569463 3 82 51
1.2660698 -0.096521772 -0.50761825 2 81 50
1.2792752 -0.096360125 -0.50906873 133 125 106
1.2852316 -0.094149359 -0.50999999 122 119 99
1.2990127 -0.095408037 -0.50999999 114 64 54
1.3040957 -0.091857329 -0.50956714 160 33 35
1.3121712 -0.096387237 -0.50973874 162 34 35
0.36199999 -0.084387399 -0.50727659 94 94 82
1.2159901 -0.089485787 -0.50099754 16 86 60
1.226553 -0.084383301 -0.50192785 6 83 52
1.2352154 -0.087172121 -0.5030359 6 81 51
1.2479588 -0.08718124 -0.50448972 5 81 51
1.2562709 -0.08560881 -0.50634575 1 80 49
1.2662805 -0.085325308 -0.50800216 5 82 50
1.2777654 -0.086575694 -0.50891674 77 104 82
1.2865473 -0.086466335 -0.50996506 129 125 107
1.2966828 -0.084691674 -0.50999999 115 113 93
1.3059536 -0.084695466 -0.50933003 164 34 34
0.36218539 -0.073892586 -0.50690371 93 94 81
1.2120802 -0.074320599 -0.50082099 22 88 59
1.225739 -0.073066652 -0.50264108 6 82 52
1.2387199 -0.072961211 -0.50361997 7 82 52
1.2443724 -0.075084053 -0.50453001 5 82 51
1.2645272 -0.076390408 -0.50752026 3 81 49
1.2768269 -0.073193207 -0.50891298 63 98 72
1.2849994 -0.076442778 -0.5098682 128 122 102
1.2960215 -0.073910587 -0.50999999 60 46 31
1.3041537 -0.077015661 -0.50946152 164 36 35
0.36185154 -0.06491375 -0.50727272 98 97 84
1.2062219 -0.066689268 -0.50000751 16 86 59
1.2158146 -0.060783383 -0.50165713 12 83 54
1.2237132 -0.068818033 -0.50274593 6 79 49
1.2377774 -0.064919069 -0.5036962 4 80 49
1.2433734 -0.064199038 -0.50459331 6 83 51
1.2534755 -0.066071153 -0.50592715 1 80 49
1.2648332 -0.066682577 -0.50769448 3 80 49
1.2734669 -0.064495876 -0.50857437 2 70 40
1.2833669 -0.064866647 -0.50972432 117 116 94
1.2993046 -0.060699105 -0.50999999 93 14 9
1.303371 -0.064512238 -0.50990522 166 37 33
0.3618544 -0.054947156 -0.5062232 99 97 84
1.2067388 -0.05586144 -0.50021315 14 85 56
1.2194662 -0.054107171 -0.50227404 7 82 49
1.2268212 -0.055542134 -0.50296539 6 81 50
1.2353654 -0.056005236 -0.50349426 5 81 50
1.2451087 -0.052841093 -0.50503188 5 83 51
1.2547001 -0.054320712 -0.50626618 4 82 50
1.2640449 -0.055116117 -0.50779742 6 79 50
1.2709703 -0.050812911 -0.50838232 5 78 48
1.2825836 -0.052184209 -0.50976592 117 113 92
1.2928383 -0.056514055 -0.50999999 115 112 89
1.3045923 -0.055088051 -0.50999999 160 37 36
0.36199999 -0.043592528 -0.50493044 104 102 87
1.2038139 -0.046060622 -0.50063145 9 82 53
1.2135628 -0.045489635 -0.50206083 10 85 53
1.2266949 -0.047038294 -0.50300002 9 82 52
1.2320008 -0.047901165 -0.50333351 7 80 50
1.2447588 -0.043299492 -0.50519007 5 82 51
1.2533896 -0.046817042 -0.50593215 4 83 52
1.2648611 -0.045369595 -0.50800002 5 81 50
1.274323 -0.04539765 -0.50864017 11 77 47
1.2834407 -0.045614075 -0.50970739 118 118 96
1.2942456 -0.04566798 -0.50999999 64 44 34
1.3043182 -0.044405028 -0.50999999 168 30 36
0.361884 -0.035165668 -0.50365359 101 101 85
1.1954885 -0.034471355 -0.5001353 7 80 50
1.207118 -0.038370002 -0.5007835 7 84 52
1.2248925 -0.035975792 -0.50303191 7 81 50
1.2362627 -0.037497044 -0.50404376 10 83 53
1.2442623 -0.034816835 -0.50508386 6 82 51
1.2555228 -0.035688661 -0.50688404 4 81 50
1.2654691 -0.035009865 -0.50807267 3 78 44
1.2760742 -0.031580705 -0.50877494 12 81 52
1.2851771 -0.034996957 -0.50979096 90 105 82
1.2965847 -0.039971188 -0.50999999 105 89 76
1.3035145 -0.036866628 -0.50999999 157 29 28
0.36143193 -0.025351407 -0.50604498 109 107 89
1.206146 -0.02490806 -0.50129306 6 80 49
1.218039 -0.026691932 -0.50299978 6 82 52
1.2242533 -0.024004312 -0.5037173 6 80 50
1.2349501 -0.025745818 -0.50415063 7 80 49
1.2457348 -0.025842091 -0.50529772 4 80 46
1.2544599 -0.029009433 -0.50683624 6 83 50
1.264796 -0.025809193 -0.50802064 4 81 44
1.2709218 -0.022498125 -0.50837862 5 75 39
1.286447 -0.02705008 -0.50997418 115 114 92
0.36124563 -0.015182192 -0.50616503 109 107 87
1.1962194 -0.01601018 -0.50020176 6 79 49
1.2033812 -0.013895037 -0.50094926 8 81 51
1.2147765 -0.014463544 -0.50281739 5 80 49
1.2264298 -0.013626517 -0.50395781 7 81 51
1.2366641 -0.012362871 -0.50455534 9 82 52
1.2446415 -0.016846722 -0.50521737 6 81 49
1.2559834 -0.017488228 -0.50712293 5 82 48
1.263489 -0.01261374 -0.50796819 6 82 48
1.2776599 -0.01447197 -0.50897223 38 94 61
0.36116019 -0.003878942 -0.50459754 110 107 86
1.1955619 -0.003571298 -0.50082135 3 78 51
1.2037523 -0.0035991708 -0.50133872 5 79 49
1.213498 -0.003648971 -0.50268167 7 80 50
1.2259054 -0.0040775845 -0.50398713 5 78 48
1.2345321 -0.0064415308 -0.50437772 3 78 47
1.2449528 -0.0057389126 -0.50558239 6 80 48
1.2557008 -0.0039725127 -0.507074 6 81 49
1.2642246 -0.0082356026 -0.50800002 7 81 48
1.2768552 -0.0054022199 -0.50889188 39 93 58
1.2804625 -0.0025380123 -0.50948751 110 101 86
0.36151582 0.0065271906 -0.50444722 109 106 85
1.1879268 0.0058597233 -0.5003252 3 78 47
1.1916882 0.0049285218 -0.50074315 5 79 49
1.2060065 0.0048428448 -0.50186855 6 79 49
1.2166312 0.0028598888 -0.50301552 5 79 48
1.2243282 0.0038346951 -0.50392556 8 79 49
1.2364042 0.0027016457 -0.50483072 6 80 50
1.2430981 0.0021587119 -0.50595236 5 79 49
1.2547113 0.0058511863 -0.50705111 6 79 49
1.2658015 0.0065640733 -0.50800002 8 81 50
1.2732223 0.0047349813 -0.50894493 9 79 49
1.2829765 0.0072835558 -0.50999999 134 123 100
0.36184752 0.017203558 -0.50515497 110 107 85
1.1867278 0.018152285 -0.50019199 4 77 47
1.1971132 0.017575178 -0.50099999 3 77 47
1.2064604 0.01416563 -0.50191486 7 78 48
1.214463 0.019797985 -0.50341052 18 82 56
1.2253008 0.013542382 -0.5039804 11 80 50
1.2304829 0.012739463 -0.50408047 6 79 49
1.2437326 0.015164454 -0.50606942 7 80 50
1.258082 0.016325301 -0.50744033 9 80 50
1.2634033 0.01909348 -0.5080201 8 79 48
1.2775347 0.018227097 -0.50962073 46 76 58
1.2814438 0.015573658 -0.50999999 133 122 100
0.36191589 0.026022989 -0.50628257 114 108 86
1.1845785 0.024455972 -0.5000124 6 79 49
1.1944091 0.025086436 -0.50094616 5 78 48
1.205721 0.02371438 -0.50178361 5 78 48
1.2234236 0.024413005 -0.50400001 17 82 55
1.23665 0.025583891 -0.5051083 7 78 46
1.2449005 0.023921726 -0.50619632 7 78 48
1.2649699 0.025254669 -0.50829351 8 78 46
1.2808288 0.025160398 -0.50999999 135 126 102
0.36156908 0.034799516 -0.50641787 115 109 85
1.1945829 0.035315268 -0.5010345 6 79 49
1.2046362 0.033242501 -0.50199997 3 76 46
1.2158948 0.035616912 -0.50364912 4 75 46
1.2234702 0.033912722 -0.50405335 11 79 51
1.2344793 0.033271272 -0.50477159 5 77 46
1.2424486 0.031966817 -0.50599998 5 76 46
1.2540188 0.03724258 -0.50711459 6 76 46
1.2626332 0.0332614 -0.50841808 7 76 45
1.2740432 0.033588208 -0.50954175 11 57 36
1.2804073 0.033435233 -0.50999999 139 129 107
0.36173233 0.04398578 -0.50517529 118 112 86
1.1767393 0.04965172 -0.50052679 6 82 52
1.1863267 0.045109924 -0.50051099 6 81 50
1.1959182 0.045786392 -0.5011282 11 81 53
1.2055876 0.044927012 -0.50199997 7 80 51
1.2155609 0.044399817 -0.50355613 3 75 44
1.2235813 0.043868452 -0.50400382 3 74 44
1.2337602 0.04491061 -0.50524151 0 73 40
1.2450787 0.045408711 -0.50621361 4 74 43
1.257349 0.041209616 -0.50767118 12 79 48
1.2632037 0.045701992 -0.50889796 7 75 46
1.275389 0.043530509 -0.50999838 7 67 39
0.36241719 0.054659635 -0.50727355 119 111 86
1.1699907 0.05968808 -0.50065821 10 90 61
1.1745422 0.058595639 -0.50114191 70 114 91
1.1831977 0.05490987 -0.50144637 43 80 54
1.1961745 0.056956422 -0.50241166 140 193 163
1.2029037 0.055715043 -0.50251955 72 105 84
1.2129433 0.057109732 -0.50327468 92 131 106
1.2236066 0.051424991 -0.50420058 86 115 87
1.2370422 0.054344818 -0.50575507 78 93 67
1.2428906 0.053716548 -0.50608385 62 102 77
1.2571086 0.053250212 -0.50781935 135 126 107
1.2626938 0.052819669 -0.50904906 107 119 94
1.2710232 0.052203316 -0.50978845 120 135 112
0.36243162 0.064936124 -0.50520962 122 114 86
1.1570153 0.06664291 -0.5002836 169 156 137
1.1716056 0.067007199 -0.50220197 163 155 136
1.1831652 0.063257702 -0.50247931 179 167 150
1.1962149 0.06557294 -0.50367039 174 162 143
1.2064346 0.062804118 -0.50348413 152 139 122
1.2181501 0.064958543 -0.50477034 153 142 120
1.2249874 0.068515673 -0.50618088 155 145 125
1.2388299 0.065979093 -0.50649792 144 137 114
1.2440958 0.065275997 -0.50721252 137 132 110
1.2564604 0.069334142 -0.50893295 158 159 137
0.36225012 0.077921964 -0.50695229 125 116 87
1.1351572 0.079974204 -0.50086147 207 199 188
1.1418625 0.076436572 -0.50122309 139 128 115
1.1554507 0.073025867 -0.50134659 132 119 100
1.1633025 0.075386152 -0.50253558 146 134 115
1.1758736 0.074353099 -0.50355303 172 162 148
1.1864831 0.073400155 -0.50424004 175 166 149
1.1951722 0.074760556 -0.50486386 129 121 103
1.2026079 0.074402295 -0.50534022 161 154 135
1.2151691 0.072770633 -0.50609106 175 168 147
1.2227556 0.073888481 -0.5068444 125 119 99
1.236089 0.076789238 -0.50824714 108 104 83
1.2436967 0.073669381 -0.50848949 176 175 155
1.2545826 0.073278539 -0.5094285 169 167 144
0.36205962 0.08487162 -0.50568151 125 116 87
1.1246361 0.087702297 -0.50067687 205 194 185
1.1337233 0.080798633 -0.50086337 113 104 93
1.1444393 0.081419095 -0.50248444 209 199 190
1.1541207 0.086829215 -0.50377846 215 205 195
1.1648848 0.085594185 -0.50486308 224 214 202
1.1734245 0.086045653 -0.50528544 220 210 199
1.1828344 0.086838976 -0.50592059 222 211 199
1.1965288 0.083706118 -0.50631136 178 170 153
1.2056227 0.082413249 -0.50701851 178 169 153
1.2163824 0.084220193 -0.50845653 209 202 181
1.2271152 0.088511094 -0.50975496 230 217 198
1.2341084 0.084142089 -0.50951189 227 221 200
0.36203423 0.095755443 -0.50573927 120 113 84
1.1070651 0.094337963 -0.50055939 210 196 186
1.1131841 0.094359666 -0.50056243 207 196 187
1.1240402 0.095067978 -0.50132912 208 195 188
1.1314527 0.096258678 -0.50240421 210 196 189
1.1482534 0.095833138 -0.50417012 208 200 192
1.157545 0.092241615 -0.50530899 212 203 194
1.168588 0.093560241 -0.50599998 213 203 194
1.1732365 0.09291403 -0.50602186 218 207 198
1.1880469 0.092937022 -0.50700003 215 208 198
1.1956427 0.093133226 -0.50715268 221 211 198
1.2084749 0.093180329 -0.50885975 219 210 195
1.2145028 0.099138618 -0.50920463 221 212 197
1.2200602 0.09470433 -0.50986576 220 213 195
0.36208463 0.10656135 -0.50501364 117 110 82
1.1024922 0.10412969 -0.50001407 86 129 102
1.1129127 0.10828823 -0.50018877 196 194 181
1.1233249 0.10420144 -0.50155401 111 145 115
1.1351268 0.10409789 -0.50296283 146 158 141
1.1448413 0.10320753 -0.50388891 171 177 163
1.1563488 0.10292186 -0.50514412 210 200 192
1.167907 0.10256594 -0.50599998 193 194 184
1.1739297 0.10488588 -0.50612289 130 148 132
1.1873605 0.10454123 -0.50700003 221 206 198
1.1944019 0.10441133 -0.50743932 149 163 144
1.206547 0.10601261 -0.50877702 220 211 196
1.2136234 0.1073731 -0.50921947 221 212 196
0.36274743 0.11234777 -0.50887662 114 107 78
1.1158284 0.11560415 -0.50025713 131 176 171
1.1249765 0.11488295 -0.50124997 187 192 208
1.1353264 0.11404178 -0.50273198 104 138 139
1.1465831 0.11272535 -0.50381172 105 136 132
1.155676 0.11373687 -0.50482452 137 158 175
1.1637692 0.11558127 -0.50573653 127 154 152
1.1721318 0.11653507 -0.50571555 143 165 187
1.1848766 0.1159462 -0.50690901 191 192 179
1.1978805 0.11343808 -0.50794452 220 210 199
1.2046802 0.11572285 -0.50860733 218 211 195
1.2168777 0.11552045 -0.50953156 219 211 195
0.36266071 0.12401205 -0.50652421 114 107 79
1.1259692 0.12151574 -0.5012877 131 159 176
1.1330825 0.12417381 -0.50199997 176 183 219
1.1481069 0.12374872 -0.50380504 193 195 234
1.1519414 0.12289216 -0.50326854 187 195 237
1.1631479 0.12465274 -0.5052647 169 181 216
1.1754552 0.1251124 -0.50563484 186 190 227
1.1853714 0.12780531 -0.50700003 186 184 171
1.1945096 0.12470017 -0.50745541 182 182 167
1.2099155 0.1205558 -0.509 219 210 195
1.2147753 0.12502821 -0.50928396 221 211 194
0.36283833 0.13588105 -0.50832188 111 104 76
1.1177778 0.13533635 -0.5002718 148 162 182
1.1260501 0.13340762 -0.50117546 142 166 182
1.1322892 0.13710205 -0.50175834 181 188 223
1.1439294 0.13241702 -0.50280315 106 132 146
1.1529694 0.13383695 -0.50345641 171 182 215
1.1662025 0.13405454 -0.50551683 154 170 196
1.1734805 0.13436784 -0.50543898 207 200 244
1.1855298 0.13759604 -0.50664043 183 187 172
1.1935484 0.13728008 -0.50702643 145 156 137
1.2082256 0.13372368 -0.50892967 221 210 194
1.2135758 0.13563681 -0.50914472 220 212 192
0.36299998 0.14627151 -0.50346243 114 106 76
1.1477005 0.14651306 -0.50351954 150 163 190
1.1553669 0.14488958 -0.50396383 194 197 235
1.1691875 0.1421403 -0.50518596 168 182 209
1.1741784 0.14649893 -0.50510925 180 183 205
1.1853318 0.1447084 -0.50618571 160 168 154
1.1940516 0.14463049 -0.50700998 184 185 165
1.2074165 0.14619449 -0.50851667 223 212 194
1.2148458 0.14790206 -0.50917202 222 212 192
0.36304674 0.15361714 -0.50567085 115 107 78
1.1269033 0.15061945 -0.50032258 29 71 57
1.1348789 0.15304372 -0.50157642 160 173 200
1.1465008 0.15514818 -0.50287628 103 133 141
1.1538408 0.15584452 -0.50327235 158 169 197
1.1643504 0.15364516 -0.50442511 208 201 242
1.185177 0.15645441 -0.50606513 173 177 160
1.1959593 0.15546948 -0.50698179 216 208 189
1.2070539 0.15544385 -0.50786841 223 212 192
1.2148896 0.15196176 -0.50912714 223 212 192
0.36333144 0.16182548 -0.50524104 117 108 79
1.1256442 0.16457891 -0.50018275 0 70 21
1.1337193 0.16518986 -0.50125539 141 164 175
1.1443431 0.16475981 -0.50269532 165 176 203
1.1544895 0.16471468 -0.50331366 182 187 226
1.1602975 0.16166608 -0.5040229 199 198 240
1.1759576 0.16862357 -0.50524735 158 169 182
1.1835971 0.165729 -0.50581193 208 202 214
1.1949261 0.16553615 -0.50648808 187 189 168
1.2046887 0.16791293 -0.50764477 222 211 188
1.2147592 0.1640019 -0.50892776 224 213 192
1.2206503 0.16407168 -0.50995004 224 213 189
0.3631222 0.175329 -0.50647151 115 106 78
1.1245786 0.17523861 -0.50006431 43 84 68
1.1340263 0.17636505 -0.50099999 112 144 150
1.1456847 0.17512725 -0.50262821 147 162 186
1.1544182 0.17401722 -0.50320268 189 192 234
1.163339 0.1730202 -0.50424379 197 197 234
1.1758903 0.17406115 -0.50514835 115 136 129
1.1844351 0.17691323 -0.50579351 169 173 156
1.196008 0.17453229 -0.50663275 194 192 171
1.2027817 0.17963231 -0.50748181 224 213 193
1.2131315 0.17674994 -0.5083828 224 214 189
0.36285076 0.18593805 -0.50506836 115 105 76
1.1268244 0.18425295 -0.50028419 146 166 179
1.1351601 0.18431334 -0.50110036 103 138 136
1.1537303 0.18512447 -0.50252652 203 197 234
1.1687595 0.18498448 -0.50400001 201 199 236
1.1741458 0.18657921 -0.50449604 198 197 224
1.1885601 0.18457711 -0.50549293 157 167 143
1.1947632 0.1820547 -0.50599998 198 198 174
1.2141176 0.18273737 -0.50861323 225 214 191
1.2200341 0.18870515 -0.50986207 225 215 190
1.1331255 0.19224888 -0.50082862 155 171 196
1.1446958 0.19616589 -0.5016374 132 151 164
1.1572814 0.19451462 -0.50266767 191 188 220
1.1639147 0.19048819 -0.50385237 211 201 235
1.1746637 0.1964224 -0.50413799 206 201 231
1.1835668 0.19815046 -0.50495183 218 207 187
1.1949984 0.19470765 -0.50598305 185 187 164
1.2085599 0.19480738 -0.50785929 224 213 192
1.2137377 0.19440925 -0.5083667 225 214 193
0.36141941 0.20350647 -0.50363714 111 99 73
1.1351912 0.20268627 -0.50030881 75 115 101
1.1425836 0.20282623 -0.50095451 192 193 224
1.1535333 0.20469658 -0.50184441 166 179 185
1.1672266 0.20670849 -0.50360227 115 136 142
1.1755173 0.20514137 -0.50406146 184 172 177
1.1851414 0.20698774 -0.50507855 215 208 187
1.1961055 0.205907 -0.50586462 214 208 188
1.2154082 0.20345946 -0.5086239 224 216 194
1.2267623 0.20099825 -0.50999999 227 216 194
0.35962495 0.21750206 -0.50359541 106 94 69
0.36002657 0.2167346 -0.50153369 111 100 72
1.1414995 0.21304376 -0.50044382 112 141 141
1.1574079 0.21493982 -0.50170112 63 105 67
1.1740962 0.21502683 -0.50402623 88 112 90
1.1811085 0.21502265 -0.50455618 216 207 191
1.1971562 0.21282847 -0.50548804 224 214 197
1.2072107 0.21626805 -0.5070529 222 214 197
1.2150784 0.2130205 -0.50822783 223 215 196
1.2232944 0.21499847 -0.50953478 225 217 199
0.35847089 0.22464561 -0.5015434 108 96 72
1.1450827 0.22403926 -0.50009489 139 164 134
1.1576265 0.22583556 -0.50133997 198 190 178
1.1667067 0.22500829 -0.50318563 206 199 186
1.1780094 0.22210622 -0.50400001 206 205 191
1.1887058 0.22344391 -0.50456363 209 205 188
1.1960273 0.22571824 -0.50570977 218 212 198
1.2012677 0.22936402 -0.50638801 221 215 201
1.2147877 0.22364148 -0.50801849 223 218 203
1.2227451 0.22286473 -0.50921112 226 219 203
1.2330508 0.22335863 -0.50999999 113 109 101
0.35754436 0.23161416 -0.50570071 101 89 64
1.1482542 0.23155671 -0.50012541 191 181 169
1.1534445 0.2346085 -0.50064445 188 178 168
1.1609631 0.23428814 -0.50230199 201 194 184
1.1739519 0.23203608 -0.50400001 209 205 194
1.1838819 0.23451857 -0.50483185 216 211 199
1.1953781 0.2326268 -0.50599998 220 216 202
1.2047915 0.23567098 -0.50670826 224 216 205
1.2153813 0.23278828 -0.5081374 226 218 205
1.2252491 0.23372993 -0.50940377 227 218 203
1.2320354 0.23518977 -0.50988007 226 216 202
0.35566038 0.24481153 -0.50493157 96 85 57
1.1455837 0.24436298 -0.50092971 171 162 147
1.1565677 0.24177714 -0.50168163 183 174 165
1.1674454 0.24558559 -0.50342643 201 193 185
1.1747639 0.24523959 -0.50405461 220 214 202
1.1864104 0.24455974 -0.50524104 224 218 204
1.1959742 0.24609208 -0.50594682 226 220 207
1.2008274 0.24213952 -0.50634795 225 219 207
1.2146403 0.24432626 -0.50800592 196 188 178
1.2266607 0.24530664 -0.509 226 216 204
1.2342657 0.24480754 -0.50937468 225 216 204
0.35692275 0.25569355 -0.50422668 91 78 53
1.1415552 0.25378796 -0.50046289 159 147 135
1.1545712 0.25338465 -0.50211024 157 151 135
1.1610367 0.2552999 -0.50308639 155 152 135
1.1748102 0.25483996 -0.50409859 155 149 132
1.181565 0.25421691 -0.50472862 242 237 216
1.1947545 0.25666073 -0.50507939 184 178 159
1.2057049 0.25627607 -0.5067606 99 92 73
1.2145256 0.25543901 -0.50773615 209 203 189
1.2201252 0.25782046 -0.50811768 130 118 104
1.2345598 0.25495681 -0.50907511 159 152 137
1.2421274 0.25483096 -0.5097127 226 219 203
0.3582781 0.26291341 -0.5023874 75 65 39
0.36020035 0.26960093 -0.50655562 64 53 31
1.1337529 0.26952919 -0.50023419 165 158 225
1.1456683 0.26387954 -0.50116116 135 128 133
1.1561904 0.26508027 -0.50240529 112 102 109
1.1652105 0.26636016 -0.50340831 102 94 97
1.1756984 0.26526532 -0.50416905 97 90 91
1.182832 0.26808161 -0.50497293 112 103 95
1.1929045 0.26405722 -0.50507033 88 81 89
1.203478 0.26452869 -0.50624633 121 116 94
1.2144184 0.26165795 -0.50784492 140 130 129
1.2264001 0.2644414 -0.50854409 128 120 101
1.2348267 0.26416463 -0.50918311 125 114 97
0.36434013 0.27375782 -0.50268233 30 22 10
0.37424505 0.27862632 -0.50335282 163 160 148
0.38370344 0.27982712 -0.50576377 141 136 130
0.47363949 0.27999997 -0.50415581 136 130 118
0.49587542 0.27999997 -0.50995249 138 130 119
0.54758096 0.27949882 -0.50490624 142 134 122
0.56617159 0.27955979 -0.50665176 150 142 129
0.57652086 0.27966979 -0.50517774 152 146 131
0.58229363 0.27999997 -0.50972193 158 152 136
0.62755102 0.27999997 -0.50730908 135 126 117
0.74455065 0.27924415 -0.50585574 138 130 121
0.75677812 0.27900001 -0.50384748 136 129 121
0.76481628 0.2793557 -0.50217128 130 121 114
0.77322614 0.27904537 -0.50479567 133 125 117
0.78819656 0.27899998 -0.50422871 130 121 114
0.79341406 0.27900001 -0.50551003 131 121 115
0.80409813 0.27900001 -0.50009334 133 126 118
0.81529588 0.27894723 -0.50527263 135 127 119
0.82689375 0.27837539 -0.50678319 132 122 115
0.83816487 0.278 -0.50312209 129 119 110
0.84551114 0.278 -0.50349844 130 120 111
0.85188174 0.27809569 -0.50355852 128 119 111
0.86657095 0.27860636 -0.50603247 133 123 114
0.87427276 0.27900001 -0.50581491 135 125 116
0.88230735 0.27900001 -0.50595844 131 121 112
0.90184736 0.27900001 -0.50591493 139 129 120
0.91267878 0.27900001 -0.50315678 149 139 130
0.927499 0.27900001 -0.50674647 165 157 148
0.93402684 0.27867335 -0.50658852 202 194 180
0.94759798 0.27831778 -0.50360507 181 173 164
0.95567906 0.27863181 -0.50596941 167 158 154
0.96520972 0.27812058 -0.50331753 166 158 156
0.97071278 0.27856499 -0.50665343 164 156 153
0.98347092 0.27871609 -0.50350928 153 143 141
0.99510324 0.27896631 -0.50437164 155 144 143
1.0050693 0.27900001 -0.50403565 160 150 148
1.0129204 0.27888277 -0.50520658 164 156 153
1.0266752 0.27871597 -0.50433165 172 162 158
1.0359894 0.27890053 -0.5039537 174 163 160
1.049623 0.27867529 -0.5038656 174 163 161
1.0552762 0.27840927 -0.50429076 168 157 151
1.0671188 0.27827787 -0.50533986 168 157 153
1.0748358 0.27827761 -0.50521445 166 154 146
1.0821668 0.27765325 -0.50596708 164 153 146
1.0967909 0.27801746 -0.50625843 161 150 141
1.1054689 0.27716967 -0.50571954 165 152 143
1.1155009 0.27554604 -0.50405049 163 151 142
1.1233028 0.27859807 -0.5064593 162 153 140
1.134722 0.27608585 -0.50581515 189 178 173
1.1452842 0.2735883 -0.50450194 178 168 167
1.1520102 0.27382457 -0.50503278 183 173 165
1.1682138 0.2734533 -0.50606048 182 168 159
1.1723062 0.27204332 -0.50557095 162 151 139
1.1853009 0.27763689 -0.50998735 146 134 118
1.200078 0.27193108 -0.50793731 140 126 104
1.2129203 0.27022535 -0.50846148 134 120 94
1.2257222 0.27016348 -0.50938785 132 121 103
1.2338375 0.27119777 -0.50980818 171 154 128
0.38348714 0.28 -0.5053007 138 129 122
0.39143786 0.28 -0.50293034 138 129 121
0.40631157 0.28059843 -0.50337648 143 134 124
0.41831881 0.2807005 -0.50510323 145 137 126
0.42068338 0.28090796 -0.50148797 148 138 128
0.43220681 0.28019357 -0.50528222 148 140 129
0.44368339 0.28 -0.50441349 137 130 120
0.45404351 0.28 -0.50641394 137 130 118
0.47216707 0.28 -0.50653023 132 126 114
0.48433793 0.28000003 -0.5054338 135 129 118
0.49474341 0.28 -0.5053795 139 133 121
0.50628161 0.28 -0.50579715 139 131 119
0.5145399 0.28 -0.50286657 140 132 120
0.52596712 0.28 -0.50634223 138 131 119
0.53153259 0.28 -0.50755936 141 133 120
0.54296952 0.28 -0.50444549 140 132 119
0.55602562 0.28 -0.50498903 144 136 123
0.56181318 0.28 -0.50385207 143 135 122
0.57973123 0.28 -0.50384253 151 148 131
0.58545089 0.28 -0.50681221 153 147 133
0.59738004 0.28 -0.50615549 152 146 132
0.60373819 0.28 -0.50955063 158 150 137
0.61784023 0.28 -0.50437307 147 139 126
0.62787151 0.28 -0.5067898 147 139 126
0.63370663 0.28 -0.50725037 138 130 118
0.64271176 0.28 -0.50442183 133 125 114
0.65283453 0.28 -0.50603592 132 126 114
0.66441733 0.28 -0.50620192 132 125 113
0.67515171 0.28028607 -0.50197452 132 126 114
0.68769968 0.28094882 -0.50691998 130 124 112
0.69521838 0.28099999 -0.50481546 131 124 113
0.70414436 0.280267 -0.50100124 129 120 111
0.71062458 0.28063118 -0.50685489 129 120 111
0.72382867 0.28 -0.50043947 130 121 112
0.73594046 0.28 -0.50587112 135 126 117
-0.88502836 -0.49335918 -0.49530277 184 170 144
-0.87593377 -0.49319425 -0.49188977 186 172 146
-0.86483312 -0.49217367 -0.49721497 187 172 149
-0.85183525 -0.49099997 -0.49314827 192 178 152
-0.84668618 -0.49148044 -0.49651462 195 181 155
-0.83441097 -0.49238259 -0.49473232 193 180 154
-0.82607645 -0.49279153 -0.49494854 193 181 155
-0.8149395 -0.49299479 -0.49628732 193 181 155
-0.80527312 -0.49097249 -0.49474216 196 184 158
-0.79607785 -0.4918133 -0.4903625 196 184 158
-0.78593367 -0.4912689 -0.49218884 191 179 153
-0.77244675 -0.491 -0.49596706 192 180 154
-0.76439691 -0.49137229 -0.49321729 190 179 151
-0.75479704 -0.49118203 -0.49607658 190 179 151
-0.74328375 -0.48961207 -0.49478269 192 181 153
-0.73729879 -0.48927373 -0.49732286 189 178 150
-0.72558123 -0.4893885 -0.49583402 215 173 177
-0.71566975 -0.48909277 -0.49544507 189 179 147
-0.7054944 -0.48934725 -0.49404609 183 179 142
-0.69575053 -0.48959497 -0.49415672 186 175 147
-0.68337566 -0.4893187 -0.49275059 177 166 138
-0.67373037 -0.48966885 -0.49385694 166 154 128
-0.66489142 -0.48903549 -0.49659809 195 183 157
-0.65465224 -0.48797762 -0.49453029 184 172 145
-0.64269614 -0.48712254 -0.49542406 187 174 146
-0.63326532 -0.48632792 -0.49501655 179 166 137
-0.61757171 -0.48587623 -0.49538851 203 190 161
-0.60256064 -0.48500001 -0.49385417 169 158 130
-0.58532095 -0.48493403 -0.49352977 195 184 154
-0.56376523 -0.48406667 -0.49235144 191 178 147
-0.55099189 -0.48399997 -0.49851146 163 150 118
-0.54452932 -0.484 -0.49565667 208 197 167
-0.53540492 -0.484 -0.49554023 196 185 155
-0.52574015 -0.48376667 -0.49148315 169 158 128
-0.51820296 -0.48323649 -0.49224773 204 193 163
-0.50506544 -0.48300937 -0.49622396 213 201 167
-0.49515522 -0.48300004 -0.49161029 202 190 158
-0.48627701 -0.48300001 -0.49556339 195 182 148
-0.47305533 -0.48300004 -0.4955714 204 191 158
-0.46331638 -0.48300004 -0.4942956 166 155 124
-0.44596249 -0.48220423 -0.49684185 212 198 163
-0.43566245 -0.48139608 -0.49449152 142 131 106
-0.42406857 -0.48100004 -0.49458876 194 179 146
-0.41486406 -0.48100001 -0.49540132 194 179 146
-0.40495023 -0.48048505 -0.4947134 163 148 117
1.6464263 -0.48029059 -0.4998284 128 118 90
1.6761885 -0.48041391 -0.49620736 179 166 144
1.688055 -0.48100001 -0.4905917 93 80 63
1.6945589 -0.48100001 -0.49793106 143 132 109
1.7030408 -0.48100001 -0.49662969 173 163 136
1.7136228 -0.48037353 -0.49135673 175 165 138
1.7264098 -0.48008734 -0.49568212 148 141 114
1.7411877 -0.48025653 -0.49209934 165 156 132
1.7534533 -0.48060086 -0.49367785 166 160 131
1.7681067 -0.48100001 -0.49561095 142 131 105
1.7770636 -0.48142642 -0.49830306 166 155 128
1.7834644 -0.48199999 -0.49552265 137 124 97
1.7978601 -0.48199999 -0.49402779 197 183 155
1.8082502 -0.48208064 -0.49859548 185 171 142
1.814911 -0.4821865 -0.49419153 176 164 134
1.8236469 -0.48242259 -0.49404943 169 158 130
1.8340282 -0.48251963 -0.49585995 145 134 106
1.8537052 -0.48271936 -0.49222147 156 145 115
1.8600426 -0.48299998 -0.49083185 175 164 134
1.8736588 -0.48300001 -0.49502632 179 167 140
1.8840866 -0.48279703 -0.49658528 183 170 136
1.8966675 -0.48300001 -0.49131253 190 177 144
1.9050242 -0.4830116 -0.49554086 190 176 145
1.9166571 -0.48376268 -0.49468017 157 142 116
1.9209701 -0.48389626 -0.49158031 194 180 153
1.9347937 -0.48343539 -0.49144083 157 146 116
1.9435278 -0.48373494 -0.49798703 182 169 140
1.9551131 -0.48313689 -0.49482313 210 197 165
1.9640728 -0.48300001 -0.49237746 172 161 131
1.9766617 -0.48300004 -0.49548259 173 162 132
1.9878891 -0.48299998 -0.49530539 184 173 142
1.9914098 -0.48300001 -0.49241483 160 147 115
2.0166614 -0.4823786 -0.49534097 183 172 141
2.0251894 -0.48212042 -0.49405307 187 178 147
2.0428984 -0.48208421 -0.49366471 182 173 144
2.0525298 -0.48199999 -0.49300015 169 160 131
2.0658925 -0.48199999 -0.49576864 168 158 131
2.082772 -0.48199999 -0.49321753 163 153 127
2.0937955 -0.48199999 -0.49387965 171 161 134
2.104701 -0.48199999 -0.49415737 176 166 139
2.1131458 -0.48199341 -0.49429569 180 170 143
2.1355505 -0.48199996 -0.49736184 177 168 139
2.1545706 -0.48196852 -0.49301365 166 157 128
2.1639304 -0.48188248 -0.4958148 166 157 128
2.1732333 -0.48199999 -0.49260846 175 166 137
2.185293 -0.48199999 -0.49487504 166 156 127
2.1944315 -0.48199999 -0.49490917 188 179 150
2.2084672 -0.48250964 -0.49655405 164 154 126
2.2151699 -0.4829855 -0.49536458 166 155 127
2.2242031 -0.48300001 -0.49512044 145 133 107
2.2340491 -0.48284781 -0.49516666 153 142 114
2.245914 -0.4832572 -0.49508396 160 149 120
2.2553501 -0.4831098 -0.49492368 160 149 119
2.266252 -0.48307082 -0.49454331 162 151 121
2.2769556 -0.48357835 -0.49517328 158 147 117
2.2842591 -0.48360077 -0.49543825 162 151 120
2.2937858 -0.48326433 -0.49419636 156 145 114
2.3074369 -0.48323488 -0.49231228 155 142 110
2.3263574 -0.48350236 -0.49358988 145 130 99
2.3328946 -0.4839595 -0.49558729 144 129 98
2.3464134 -0.48436943 -0.4959484 157 141 108
2.3527694 -0.48453987 -0.49533081 137 121 88
2.3661568 -0.48450175 -0.49900222 119 103 70
2.3736544 -0.48399997 -0.49425432 142 126 93
2.3943663 -0.48393252 -0.49299288 147 132 99
2.406322 -0.48328066 -0.49182278 144 129 96
2.413476 -0.48329127 -0.4968783 138 123 91
2.4267225 -0.48333502 -0.49298626 132 117 84
2.435549 -0.48268342 -0.4961305 131 118 86
2.4487848 -0.48199999 -0.49497515 135 122 88
2.4542565 -0.48199999 -0.49575981 160 150 115
2.4651539 -0.4818258 -0.497271 143 130 97
2.4740064 -0.48195782 -0.49489382 141 128 96
2.4848323 -0.48143589 -0.49449652 144 131 99
2.4937601 -0.48060739 -0.49337071 142 129 97
2.5008676 -0.48025513 -0.49911386 148 135 103
-0.39498761 -0.47982216 -0.49457979 169 154 123
-0.37913769 -0.4794713 -0.49711916 198 182 149
-0.36594367 -0.47903633 -0.49274865 201 183 149
-0.35363054 -0.479 -0.49035323 154 138 105
-0.34594175 -0.47899997 -0.49735236 157 142 113
-0.33375362 -0.47902074 -0.49482378 196 180 148
-0.32328999 -0.47912163 -0.49457139 184 166 136
-0.3144722 -0.479 -0.49489632 161 144 111
-0.30262712 -0.47888881 -0.49810094 176 157 122
-0.29543084 -0.47861585 -0.49484605 177 158 124
-0.2844443 -0.47799999 -0.49862945 207 188 156
-0.27803412 -0.47799999 -0.49330449 167 151 119
-0.26295391 -0.47799999 -0.49552956 190 175 136
-0.25315666 -0.47769389 -0.49545154 184 167 133
-0.24206424 -0.47783858 -0.49246326 196 182 143
-0.23540969 -0.47791231 -0.49500826 200 181 147
-0.22659978 -0.47799999 -0.49378997 180 161 129
-0.21337479 -0.47799999 -0.49584424 201 183 152
-0.20476335 -0.47799999 -0.49875793 204 188 155
-0.19580294 -0.47799999 -0.4971956 208 193 164
-0.18289466 -0.47799999 -0.49101412 143 126 96
-0.17458273 -0.47800002 -0.49556398 164 153 123
-0.16393834 -0.47799999 -0.49772787 153 142 116
-0.1554419 -0.47800002 -0.49496245 96 86 57
-0.14459515 -0.47799999 -0.49499458 154 143 116
-0.13743867 -0.47799999 -0.49415681 141 131 106
-0.12557447 -0.47799999 -0.49365783 149 135 106
-0.11464842 -0.47799999 -0.49558312 172 158 129
-0.10332237 -0.47799999 -0.49338734 193 178 135
-0.091567203 -0.47743323 -0.49269688 126 110 76
-0.089556172 -0.47795343 -0.49936125 122 107 74
-0.074616425 -0.47767943 -0.49520391 151 137 101
-0.064200215 -0.47727421 -0.4966324 116 103 71
-0.052762866 -0.477 -0.49431658 160 146 109
-0.035090402 -0.477 -0.49760783 191 177 134
-0.022182032 -0.477 -0.49279118 218 201 157
-0.014656147 -0.47682202 -0.49502283 202 190 150
-0.0054466161 -0.47613493 -0.49452928 179 162 127
0.003885787 -0.47600001 -0.49970967 175 159 125
0.011626509 -0.47600001 -0.49347401 142 128 91
0.023908678 -0.47600001 -0.49289286 160 147 105
0.035836525 -0.47554052 -0.49656242 167 151 107
0.044111375 -0.4755072 -0.49311143 176 158 120
0.054968528 -0.47530213 -0.49279213 146 131 94
0.066522002 -0.47516754 -0.4969714 161 147 108
0.07838203 -0.47523129 -0.49089301 198 186 148
0.08858484 -0.47500002 -0.49748319 213 204 165
0.092675284 -0.47499999 -0.49423859 209 198 160
0.10611098 -0.47499999 -0.49559918 158 144 105
0.1192544 -0.47499999 -0.4967649 197 181 148
0.12647352 -0.47500002 -0.49578249 197 186 146
0.13692018 -0.47499999 -0.49588087 156 144 106
0.14632082 -0.47499996 -0.49693239 189 178 137
0.15254331 -0.47499999 -0.49477622 173 161 125
0.16577458 -0.47477865 -0.49236804 156 145 110
0.17360322 -0.47460312 -0.49388528 168 160 114
0.1855834 -0.47454929 -0.49433458 167 156 114
0.19373739 -0.47499999 -0.49782121 126 116 74
0.21579544 -0.47499999 -0.49567613 135 124 94
0.22300631 -0.47499999 -0.49720812 132 122 93
0.23237124 -0.47499999 -0.49502736 165 154 122
0.24469633 -0.47499999 -0.49340415 154 143 114
0.25359482 -0.47499996 -0.49540639 162 155 127
0.26168394 -0.47499996 -0.49050033 131 124 95
0.27124336 -0.47499996 -0.49335894 166 157 124
0.28537926 -0.47499999 -0.49499664 159 149 120
0.29741353 -0.47494617 -0.49441996 141 130 104
0.30718035 -0.4743042 -0.49741858 158 147 118
0.31618035 -0.47438213 -0.49464315 161 151 119
0.32591295 -0.47491378 -0.49344528 142 130 107
0.33645016 -0.47499999 -0.49239478 112 100 76
0.34593701 -0.47539499 -0.49432266 121 108 87
0.35768443 -0.47475004 -0.49737 88 79 62
1.085501 -0.47067237 -0.49009651 172 152 119
1.1015825 -0.47036207 -0.49048692 221 211 184
1.1215738 -0.47113723 -0.49032268 176 162 133
1.1311436 -0.47183651 -0.49095297 182 168 139
