ply
format ascii 1.0
comment PCL generated
element vertex 1046
property float x
property float y
property float z
property uchar red
property uchar green
property uchar blue
end_header
0.072666012 -0.46307784 0.15728414 146 128 109
0.09425614 -0.46143326 0.15877895 98 57 53
0.27484101 -0.46212548 0.1569038 163 136 118
0.28696984 -0.46613088 0.15517373 44 41 40
0.29484522 -0.4670634 0.15318711 178 160 145
0.30745345 -0.46899998 0.15428048 187 171 149
0.314165 -0.46900001 0.15586185 178 163 141
0.32227769 -0.46900004 0.15453333 172 158 132
0.33443177 -0.46900001 0.15428324 190 176 152
0.3481195 -0.46900001 0.15049127 172 161 143
0.35298163 -0.46900001 0.15549645 177 168 142
0.36788729 -0.46951145 0.15289715 192 181 153
0.37885106 -0.47 0.15248419 180 168 142
0.38852453 -0.47 0.15585053 205 176 144
0.39680776 -0.47 0.15162456 197 185 161
0.40320998 -0.46999997 0.15565829 183 171 149
0.062388979 -0.45998204 0.15096575 114 46 47
0.078858964 -0.45762148 0.15238844 122 44 48
0.086280376 -0.45693311 0.15324356 133 39 47
0.096237078 -0.45480072 0.15262726 146 64 69
0.10322569 -0.45642579 0.15553096 142 64 71
0.11518393 -0.45614415 0.15666214 133 39 46
0.12501767 -0.45583975 0.15815648 121 41 50
0.13390875 -0.45364222 0.15270273 130 50 57
0.14435786 -0.45412207 0.15357493 146 52 61
0.15411554 -0.45387319 0.15533477 140 47 58
0.16445698 -0.45557863 0.1541746 123 51 55
0.1741932 -0.45641345 0.15443364 128 63 64
0.18524931 -0.45587674 0.15745036 134 53 59
0.19649485 -0.45704824 0.15459973 116 57 59
0.20539951 -0.45631164 0.15628693 73 42 48
0.21468784 -0.45574975 0.1545496 118 49 53
0.22417575 -0.45302075 0.15707329 123 40 47
0.2327005 -0.45193842 0.15384614 146 77 82
0.24519241 -0.45291191 0.15606681 143 72 74
0.25558674 -0.45548648 0.15665805 145 95 90
0.26464787 -0.45606956 0.1516875 149 110 105
0.23693977 -0.44994372 0.15575936 129 32 41
0.24943084 -0.44897228 0.15639767 145 87 86
0.25013807 -0.44893423 0.15502179 131 67 68
-0.59214687 -0.33138826 0.15063703 220 219 217
-0.58644402 -0.32455146 0.15248482 216 216 217
-0.57479352 -0.32339436 0.15138285 222 216 220
-0.56989563 -0.32316339 0.15021294 218 216 219
-0.58341932 -0.31429976 0.15651728 219 218 215
-0.57502908 -0.31559184 0.15281989 219 219 219
-0.56665373 -0.3164106 0.15036055 218 217 224
-0.57261807 -0.30331993 0.15723826 219 219 218
-0.56342268 -0.30660927 0.15113947 219 219 223
-0.57242703 -0.29592574 0.15931621 223 223 221
-0.56436169 -0.29528725 0.15551257 220 220 220
-0.55681866 -0.29397377 0.15126108 222 222 223
-0.56658059 -0.28389403 0.15777393 222 221 217
-0.55420166 -0.28538075 0.15212299 222 222 224
-0.56112558 -0.27957663 0.15649676 219 219 219
-0.55288392 -0.27447501 0.1537493 220 220 220
-0.55555558 -0.26734009 0.15594172 222 222 221
-0.55365092 -0.25827101 0.1559177 221 221 221
-0.54621184 -0.25465381 0.15182032 223 223 223
-0.55012822 -0.24395055 0.15877171 225 226 221
-0.5419687 -0.24406828 0.15162158 223 223 221
-0.54209071 -0.23649794 0.1553248 223 224 222
-0.54350001 -0.22568914 0.15951961 222 222 220
-0.53655779 -0.22299182 0.15354601 220 221 217
-0.53410482 -0.21432577 0.15317702 214 215 212
-0.53251612 -0.20532078 0.15529133 199 200 195
-0.52958524 -0.20043248 0.15438516 213 212 210
-0.52343112 -0.19030291 0.15812913 181 187 173
-0.52157944 -0.18577147 0.15296532 197 198 193
-0.51402575 -0.1745453 0.15693207 180 185 173
-0.50572604 -0.16434437 0.15782928 178 182 171
-0.50180298 -0.15356755 0.15816239 149 157 132
-0.50075269 -0.14923877 0.15510444 97 126 72
-0.49970409 -0.14287218 0.15311933 131 145 113
-0.50292456 -0.13348624 0.15532824 89 107 61
-0.51327354 -0.12285569 0.15596032 69 96 40
-0.51663238 -0.11546637 0.155368 68 95 38
-0.51716882 -0.10660615 0.15560102 58 84 36
-0.55620658 -0.092980608 0.15021785 42 45 24
-0.54297334 -0.091774382 0.15443349 74 69 50
-0.53687751 -0.090827182 0.1530402 62 59 40
-0.51642084 -0.094767392 0.15674725 50 69 32
-0.55786979 -0.089340106 0.15092395 88 91 70
-0.54335248 -0.081427373 0.15350281 79 82 60
-0.53395611 -0.088807359 0.15436512 58 53 31
-0.52395713 -0.087893337 0.15486358 41 50 19
-0.54215097 -0.078665152 0.15160936 83 85 64
-0.52324235 -0.059999999 0.15639117 42 43 36
-0.5180248 -0.055388197 0.15493548 86 89 66
-0.50162315 -0.04162699 0.15910122 87 91 69
-2.312288 -0.48737741 0.16339934 166 156 144
-2.1146181 -0.48699999 0.16702208 80 77 72
-2.1037161 -0.48525107 0.16404822 159 152 136
-2.0966959 -0.48460227 0.16591167 160 153 137
-2.082653 -0.48682439 0.16647521 170 161 145
-2.0778534 -0.48620009 0.16337541 176 167 150
-2.0640051 -0.48676011 0.16263981 151 146 132
-2.0524218 -0.48743173 0.16007642 150 142 129
-2.0464056 -0.48905987 0.16060922 137 133 122
-2.0108728 -0.48582822 0.16711892 154 148 134
-2.008173 -0.48449075 0.1647941 157 149 136
-1.9937711 -0.48452213 0.1641455 167 158 142
-1.9871656 -0.48356444 0.16387676 156 149 133
-1.9754759 -0.48457626 0.16808027 158 149 136
-1.9522681 -0.48077923 0.16732146 161 154 136
-1.9493613 -0.48062491 0.16160485 154 147 131
-1.9348789 -0.48310137 0.16335021 162 154 138
-1.9253556 -0.48372641 0.16631515 162 154 138
-1.9159062 -0.48341143 0.1653108 166 157 140
-1.9036355 -0.48331589 0.16538313 161 154 138
-1.895664 -0.48377377 0.16462357 162 153 138
-1.8753462 -0.48395297 0.16460054 175 166 149
-1.8637937 -0.48410726 0.1617921 163 158 139
-1.8571992 -0.48540378 0.16701117 164 161 144
-1.8475611 -0.48276132 0.16164155 158 166 142
-1.8368976 -0.48158258 0.16302755 166 163 143
-1.8247484 -0.48270071 0.16479512 171 163 143
-1.8151176 -0.48333389 0.1645975 168 160 141
-1.8020273 -0.48321491 0.16396715 183 175 154
-1.796808 -0.48310649 0.16517228 166 160 139
-1.7878861 -0.48398054 0.16507217 169 161 140
-1.7769251 -0.48378131 0.16668332 176 166 146
-1.7650827 -0.48387209 0.16596453 171 162 140
-1.7538228 -0.48313969 0.16786356 186 177 148
-1.7442468 -0.48199657 0.16750044 171 163 142
-1.7309208 -0.48282975 0.16940659 168 160 139
-1.7290952 -0.48131764 0.1622825 169 161 138
-1.7132204 -0.48255992 0.16137362 168 160 138
-1.7024443 -0.48206276 0.1636951 168 157 137
-1.693635 -0.48130837 0.16162337 180 168 144
-1.6866105 -0.48151785 0.16292453 170 160 139
-1.6744051 -0.48205289 0.16376507 174 166 142
-1.6645169 -0.48204985 0.16555345 169 161 138
-1.6554035 -0.48206744 0.16399933 172 163 139
-1.6427336 -0.48089045 0.16426386 172 164 137
-1.6367612 -0.48080739 0.16360429 170 161 137
-1.6205209 -0.48030019 0.167886 167 159 136
-1.6142174 -0.48092803 0.16536093 166 158 135
-1.5938998 -0.48055854 0.16588688 170 161 138
-1.58587 -0.48027658 0.16964132 169 158 136
-1.5649986 -0.48047334 0.16509327 168 159 135
-1.5535436 -0.48022419 0.16163398 171 160 138
-1.5438833 -0.48083857 0.16425206 172 162 139
-1.5383649 -0.48034954 0.16702005 168 160 139
-1.5240908 -0.48073393 0.16484018 173 162 140
-1.5176656 -0.48035869 0.16403568 171 161 136
-1.4973049 -0.48025173 0.16938871 172 161 139
-1.4859633 -0.48061526 0.16563798 167 159 133
-1.4748281 -0.48102739 0.16452165 169 159 134
-1.464828 -0.4807232 0.16456094 172 162 137
-1.4552866 -0.48070666 0.16545981 170 160 135
-1.4435756 -0.48089474 0.16340885 169 162 136
-1.4261411 -0.48048708 0.16498362 171 161 136
-1.4151701 -0.48045701 0.16235565 170 163 137
-1.4024734 -0.48100001 0.16634379 172 162 137
-1.3927374 -0.48100001 0.16432992 172 162 136
-1.3850548 -0.48100001 0.16656536 170 160 135
-1.3755976 -0.48100001 0.16992193 173 163 138
-1.3646958 -0.48048028 0.16451728 172 162 137
-1.3535123 -0.48085183 0.16681612 176 165 138
-1.3342606 -0.48074299 0.1614344 176 164 138
-1.3244802 -0.48089159 0.16698855 179 168 141
-1.3135216 -0.48100001 0.16274859 180 168 141
-1.3036911 -0.48100004 0.1613127 178 168 143
-1.2959875 -0.48100001 0.16791442 182 173 144
-1.2864347 -0.48054466 0.16405785 181 170 143
-1.2739917 -0.48067927 0.16778599 181 169 142
-1.2685835 -0.48079863 0.16079432 181 170 142
-1.2373493 -0.48015267 0.16131637 176 166 139
-1.2238811 -0.48074922 0.16410278 178 168 143
-1.214293 -0.4804298 0.16659021 179 169 144
-1.2000673 -0.48037326 0.16001327 177 167 142
-1.1945322 -0.48043746 0.16035226 180 168 143
-1.1375335 -0.48007813 0.16389015 179 167 141
-1.1245575 -0.48020667 0.16382456 180 168 142
0.93849945 -0.48190203 0.16613221 210 204 182
0.94249314 -0.48233667 0.1637287 206 199 174
0.95376909 -0.48349121 0.16505671 210 203 178
0.97463787 -0.4840219 0.16210678 211 205 179
-1.5813278 -0.47987881 0.16226867 175 164 142
-1.5764127 -0.4795658 0.16427973 167 159 135
-1.5317458 -0.47999999 0.16820881 171 160 140
-1.5110084 -0.47999996 0.166665 174 163 141
-1.5036278 -0.48000002 0.16409639 168 162 137
-1.2552059 -0.47999999 0.1655926 180 167 141
-1.2456062 -0.47999999 0.16549844 179 169 143
-1.1801665 -0.47970104 0.16967361 177 167 142
-1.177104 -0.47999915 0.16316223 178 169 143
-1.1666293 -0.47999996 0.16663873 181 169 143
-1.1555513 -0.47999999 0.16417176 180 167 141
-1.1498326 -0.47999996 0.16872999 179 167 141
-1.1333507 -0.47999999 0.16340259 180 168 142
-1.1295446 -0.47999999 0.16997829 183 174 145
-1.1109354 -0.47999999 0.16983888 182 170 144
-1.1069713 -0.47999996 0.16627783 181 170 144
-1.0957716 -0.47999999 0.1645602 180 168 142
-1.0838897 -0.47999999 0.16164565 181 173 144
-1.0762461 -0.47980925 0.16454773 180 171 142
-1.0626721 -0.48000002 0.16326344 180 169 143
-1.0547935 -0.47940338 0.16527475 181 171 144
-1.0441772 -0.47910473 0.16617887 180 170 144
-1.0337662 -0.47900003 0.16956548 174 164 137
-1.0242728 -0.47956973 0.16431281 179 169 142
-1.0143571 -0.47950953 0.16670078 181 171 145
-1.0033727 -0.47946709 0.16317099 183 172 144
-0.99018651 -0.47899997 0.16122463 181 171 146
-0.98548955 -0.47888052 0.16522418 182 172 145
-0.97015411 -0.47840565 0.16410379 180 169 139
-0.96181083 -0.47842661 0.16305998 188 177 153
-0.95282364 -0.47799999 0.16462229 183 173 146
-0.94527721 -0.47858423 0.16367543 186 175 150
-0.93688989 -0.47826684 0.16911592 192 182 155
-0.92961615 -0.47846818 0.16579266 191 182 155
-0.91497302 -0.47799999 0.16763011 193 183 156
-0.90725446 -0.47799999 0.16500276 196 186 159
-0.89683849 -0.47800002 0.1646931 195 186 159
-0.88961756 -0.47799999 0.1631968 199 189 162
-0.87416315 -0.47799999 0.16679546 195 186 156
-0.86415565 -0.47733796 0.16525081 197 189 160
-0.85407037 -0.477 0.16589712 194 187 158
-0.84087491 -0.47795597 0.16219097 199 191 160
-0.83616859 -0.47783077 0.16504125 198 190 163
-0.82325029 -0.47793296 0.16734837 197 188 160
-0.81693327 -0.47799999 0.16226763 196 186 159
-0.80087924 -0.47760105 0.1643412 198 189 160
-0.79361862 -0.47747004 0.1659877 198 191 163
-0.7825557 -0.47785759 0.16732168 201 190 164
-0.77265787 -0.47777316 0.16650066 201 190 163
-0.76514161 -0.47749919 0.16889599 198 189 160
-0.75911653 -0.47735113 0.16611612 201 192 164
-0.74511504 -0.47765309 0.16816679 202 192 165
-0.72518879 -0.47736236 0.16609593 204 195 169
-0.71232802 -0.47686079 0.16624846 200 193 166
-0.70538282 -0.477 0.16746458 204 194 167
-0.69366717 -0.47693443 0.16481256 200 191 165
-0.68787444 -0.47669786 0.16470437 201 192 166
-0.67194414 -0.47672057 0.16380976 198 188 162
-0.66572219 -0.47651458 0.16407537 196 184 158
-0.65559989 -0.47628641 0.16279979 205 194 167
-0.64621317 -0.47600001 0.16256881 198 187 160
-0.63260692 -0.4760578 0.16501458 197 185 159
-0.62580794 -0.47589606 0.16434854 199 187 161
-0.61161345 -0.47577819 0.16758421 201 194 168
-0.60938483 -0.47600001 0.16113076 201 190 168
-0.59225905 -0.47600001 0.16245699 201 191 166
-0.58693361 -0.47600001 0.16673926 200 193 167
-0.57513881 -0.47592029 0.16380806 198 191 165
-0.56274933 -0.4754537 0.16692601 201 194 167
-0.54527915 -0.47561306 0.16619475 201 192 165
-0.53552079 -0.47583073 0.16761462 207 200 174
-0.52773124 -0.47541347 0.16542862 193 184 159
-0.51307267 -0.47600001 0.16372095 197 189 161
-0.50087225 -0.47600001 0.16221394 196 189 163
-0.49484307 -0.47600001 0.16519314 200 193 167
-0.48411295 -0.47600001 0.16242415 197 191 169
-0.47288889 -0.47600001 0.16736346 194 186 158
-0.46370926 -0.47600001 0.16296609 198 189 162
-0.45011538 -0.47600001 0.16508971 199 192 163
-0.44706601 -0.47600001 0.16624206 201 192 161
-0.43131819 -0.47603521 0.16851285 198 187 159
-0.42503816 -0.47600001 0.16514999 199 187 160
-0.41548425 -0.47601244 0.165638 193 184 156
-0.40758011 -0.47693521 0.16173947 186 170 144
-0.38559905 -0.47599998 0.16582571 193 184 154
-0.37481976 -0.47594118 0.1605469 200 191 162
-0.36247385 -0.47524229 0.16599165 189 172 154
-0.34852403 -0.47499996 0.16730991 163 149 122
-0.33378962 -0.47489092 0.16571662 196 186 156
-0.32716483 -0.47429621 0.16768998 203 192 162
-0.30828789 -0.47400001 0.16126211 201 192 163
-0.29884952 -0.47400001 0.16129765 208 197 169
-0.2847569 -0.47367901 0.16474631 178 168 142
-0.27463439 -0.47299999 0.16076851 186 176 149
-0.26672134 -0.47299999 0.16535202 198 192 161
-0.25252956 -0.47299999 0.16477007 213 200 173
-0.24638863 -0.47299999 0.1651331 216 205 177
-0.23070472 -0.47290283 0.16305515 190 177 142
-0.22417834 -0.47245598 0.16672647 204 193 169
-0.21829931 -0.472 0.16805528 168 165 150
-0.20622011 -0.472 0.16895244 202 192 167
-0.19655868 -0.472 0.16409531 197 187 160
-0.18626174 -0.472 0.16286249 127 111 78
-0.17205831 -0.47079343 0.16278031 230 202 33
0.39724028 -0.47000003 0.16585714 209 192 164
0.42395544 -0.47021613 0.16532539 175 163 144
0.4329505 -0.47087431 0.16422138 206 196 177
0.44441918 -0.47093609 0.16345391 170 157 134
0.45514894 -0.47170827 0.1654897 184 172 148
0.46078402 -0.47147113 0.16245949 162 151 133
0.47541571 -0.472 0.16670185 172 160 139
0.48726392 -0.472 0.16566277 181 171 151
0.49775124 -0.472 0.16719472 178 167 147
0.50671428 -0.47207874 0.16231418 179 164 143
0.51430368 -0.47250903 0.16639295 169 160 139
0.52506369 -0.47299996 0.16501173 176 163 142
0.53317869 -0.47299999 0.16364768 181 168 144
0.54506087 -0.47299999 0.16412213 170 158 136
0.55478084 -0.47299999 0.16688108 165 156 130
0.56958187 -0.47382182 0.16513482 194 181 157
0.57501352 -0.47399998 0.16115505 180 167 135
0.58637035 -0.47399998 0.16083536 190 178 152
0.59528828 -0.47431409 0.16643187 190 183 157
0.60609233 -0.47499996 0.16766655 185 176 152
0.61701024 -0.47500002 0.16481167 208 198 171
0.62649047 -0.47499996 0.16508798 218 208 181
0.63262361 -0.47505569 0.16457625 178 169 142
0.64591014 -0.47588053 0.16493906 190 181 154
0.65542704 -0.476136 0.16329929 186 176 149
0.66562015 -0.47694072 0.1654437 199 190 164
0.67323202 -0.477 0.16553554 192 184 159
0.68665349 -0.477 0.16421498 200 189 164
0.69501334 -0.47699997 0.16499367 198 186 160
0.70695949 -0.47705868 0.16077261 199 191 163
0.7117933 -0.47736371 0.16364719 192 185 157
0.72595829 -0.47829291 0.16840553 204 192 150
0.73632824 -0.47832662 0.16442955 103 100 73
0.74735451 -0.47722691 0.16665818 53 57 54
0.7553708 -0.47623098 0.16514952 45 52 57
0.76605302 -0.47546822 0.16423471 40 47 53
0.77589905 -0.47546554 0.16578779 192 186 162
0.78269958 -0.47488078 0.16604333 177 170 146
0.79515928 -0.47488239 0.1644007 199 192 165
0.811979 -0.47433984 0.16545983 198 190 164
0.8289566 -0.47500002 0.16380106 211 205 179
0.83452362 -0.47530261 0.16548233 193 185 159
0.84707224 -0.47600001 0.16509011 192 185 159
0.85503817 -0.47680372 0.16133243 156 151 132
0.86337668 -0.47693875 0.16416471 197 190 162
0.87481862 -0.47705802 0.16393635 196 188 161
0.88524359 -0.477 0.16887006 99 95 86
0.89463407 -0.47786975 0.16427213 201 195 176
0.90674686 -0.47804713 0.16441752 209 207 187
0.91607809 -0.47930449 0.1663439 201 195 175
0.92331874 -0.47982937 0.16323973 214 209 187
-0.16418904 -0.46889627 0.16747215 230 200 21
-0.15324192 -0.46703354 0.16369338 232 204 23
-0.14053012 -0.4674238 0.16510767 227 202 37
-0.12449503 -0.46861711 0.16511038 177 167 139
-0.11029726 -0.46899998 0.16520688 208 199 170
-0.10866749 -0.46900004 0.16352335 143 131 117
-0.098511621 -0.46900001 0.16534182 181 171 151
-0.086752467 -0.46900004 0.16573805 186 179 158
-0.064306304 -0.46900004 0.1648227 202 195 170
-0.057025157 -0.46899998 0.16375193 149 140 117
-0.042001888 -0.46822646 0.16518843 215 207 185
-0.035717335 -0.46800002 0.16540907 209 200 172
-0.011473705 -0.46799999 0.16655031 231 221 194
-0.0054109325 -0.46800002 0.16452113 177 170 145
0.0082232989 -0.46799999 0.16575758 177 169 150
0.019396722 -0.46799999 0.16818134 220 211 178
0.031146176 -0.46727344 0.16688389 204 195 171
0.046550833 -0.46690029 0.16599999 180 168 141
0.055414587 -0.46684587 0.16338301 173 163 139
0.066184245 -0.4665505 0.16504593 182 170 150
0.07670299 -0.46537217 0.16311128 172 158 136
0.084898099 -0.4660047 0.16653946 172 159 135
0.093492053 -0.46501622 0.16652675 126 115 104
0.10407878 -0.46385649 0.16612004 194 179 158
0.11185111 -0.46102506 0.1617513 175 159 143
0.13742422 -0.46166316 0.16920683 152 95 88
0.24230044 -0.4611015 0.16912535 181 204 175
0.25600138 -0.46052188 0.16366795 184 152 144
0.26710212 -0.46511331 0.16737486 180 167 151
0.27544603 -0.46581942 0.16355544 181 166 149
0.28525102 -0.46824229 0.16602625 195 181 162
0.29531437 -0.46885049 0.1661098 192 178 159
0.30492467 -0.46900004 0.16585058 178 166 147
0.31156528 -0.46900001 0.16733357 175 164 144
0.32750055 -0.46900004 0.16796823 207 196 176
0.33745512 -0.46900001 0.16557975 189 178 158
0.34333688 -0.46899998 0.1636278 178 167 144
0.35483488 -0.46900004 0.16364963 177 166 144
0.36568233 -0.4690595 0.16347994 189 178 156
0.37618625 -0.46954042 0.16773249 193 176 151
0.38643372 -0.47 0.16506775 168 154 130
0.40383855 -0.47 0.16320257 180 167 145
0.13496135 -0.45777181 0.16270845 130 46 56
0.14419906 -0.45660225 0.16325822 126 47 53
0.15400784 -0.4560416 0.16517298 143 48 56
0.16565485 -0.45539942 0.16588773 148 49 61
0.17575715 -0.45531902 0.16653141 143 36 49
0.18653251 -0.45453584 0.16379009 144 52 61
0.19715776 -0.45477176 0.16660202 159 48 63
0.20407379 -0.45463097 0.16290663 130 52 60
0.21595618 -0.4529953 0.16461617 128 24 38
0.2249247 -0.45305991 0.16607864 134 45 52
0.23403923 -0.45451078 0.16539721 156 86 86
0.24110794 -0.45650971 0.16419059 144 87 84
0.25389296 -0.45823976 0.16093415 155 117 115
-0.5701679 -0.27763787 0.16058317 225 225 220
-0.56553346 -0.27185532 0.16017719 220 220 218
-0.564726 -0.26720706 0.1609817 219 219 220
-0.56079 -0.25639668 0.16115823 222 222 220
-0.5558002 -0.24723363 0.16174996 226 225 223
-0.5473069 -0.23622143 0.16230248 224 225 223
-0.54776174 -0.22584966 0.16626993 211 215 207
-0.54316425 -0.21843036 0.16529119 220 224 217
-0.53806812 -0.21399955 0.16852233 203 209 199
-0.53238726 -0.20615581 0.16444404 196 201 190
-0.52472615 -0.19396202 0.16608761 195 200 191
-0.51570773 -0.1856253 0.16793966 161 163 160
-0.51185036 -0.17733996 0.16566496 172 178 163
-0.5034706 -0.16388592 0.16627149 150 163 137
-0.50175107 -0.15619946 0.16120972 108 127 91
-0.50189924 -0.1416872 0.16480456 70 95 46
-0.50716275 -0.1335094 0.16401666 59 85 29
-0.51379669 -0.12363385 0.16807441 78 104 55
-0.51396626 -0.11466146 0.16592239 74 98 48
-0.51182503 -0.10137784 0.16474555 71 93 51
-0.5126183 -0.093191057 0.16414517 54 75 36
-0.5434835 -0.085141152 0.16254571 85 84 63
-0.53520215 -0.084217951 0.16323826 80 75 58
-0.52725381 -0.083326213 0.16274533 72 73 53
-0.51441222 -0.08586964 0.16462812 36 47 26
-0.52417713 -0.074594706 0.16708535 84 82 62
-0.51352346 -0.055337828 0.16683652 82 80 65
-0.49703354 -0.042140037 0.16871738 84 83 62
-0.49502623 -0.039259952 0.16635056 79 83 59
-2.3031697 -0.48699999 0.17225844 165 155 143
-2.1998687 -0.48935473 0.17628536 168 156 142
-2.1141391 -0.48670977 0.17943245 164 156 142
-2.1045465 -0.48543984 0.17389473 159 152 137
-2.0926008 -0.48575205 0.17379345 174 167 149
-2.0871968 -0.48695004 0.17483935 172 166 149
-2.0730162 -0.48698372 0.1793312 161 153 140
-2.0145087 -0.48627982 0.17595355 168 159 144
-2.0048103 -0.48500937 0.17436559 169 158 142
-1.9918361 -0.486 0.17163515 165 156 141
-1.9841925 -0.48676828 0.17566431 160 151 138
-1.975306 -0.48622206 0.17343302 159 151 137
-1.9633265 -0.48155212 0.17110442 157 149 136
-1.9566736 -0.48231021 0.17360926 161 153 138
-1.9429337 -0.48357049 0.17617817 163 155 138
-1.930802 -0.48486647 0.17562914 163 156 140
-1.9222698 -0.48422202 0.17615694 179 168 150
-1.9140444 -0.48399997 0.17728557 166 157 140
-1.8911018 -0.48427865 0.17184743 174 162 146
-1.8831171 -0.48359132 0.17470142 166 157 141
-1.8704746 -0.48525 0.17822662 158 155 138
-1.8641841 -0.48553234 0.17660317 161 158 140
-1.8557837 -0.48513538 0.17446503 158 158 140
-1.8436636 -0.4837327 0.17285465 153 156 133
-1.8371646 -0.48339581 0.17464505 164 162 141
-1.82249 -0.48411095 0.17499377 161 156 136
-1.8149301 -0.48311198 0.17013764 166 159 140
-1.8041306 -0.48410714 0.17235902 173 165 146
-1.7966518 -0.48399329 0.17215082 172 166 144
-1.7809093 -0.48399997 0.17234437 168 160 139
-1.7763721 -0.48420382 0.17614593 171 163 141
-1.7589906 -0.48353845 0.17888799 172 161 141
-1.7493513 -0.48250774 0.17441155 185 175 150
-1.7339821 -0.4823465 0.17648144 169 159 141
-1.7247955 -0.48535004 0.17884564 171 160 140
-1.7184068 -0.48388404 0.17686017 177 167 142
-1.7083325 -0.48202726 0.17507422 180 170 145
-1.6957403 -0.48226961 0.17629854 172 162 140
-1.6859734 -0.48170024 0.17145845 169 158 138
-1.6721112 -0.48124525 0.1720344 174 163 143
-1.6652572 -0.48165098 0.17682785 177 168 143
-1.6596692 -0.48184943 0.17102554 169 161 138
-1.6465218 -0.48093352 0.17168038 177 166 142
-1.6211638 -0.48005223 0.17027621 162 154 131
-1.6154865 -0.48045635 0.17651728 167 159 136
-1.6055455 -0.48062524 0.17568471 169 162 137
-1.5914693 -0.48085737 0.17276685 170 159 137
-1.570626 -0.48075756 0.17876638 169 162 136
-1.5679321 -0.48018682 0.17047806 167 159 136
-1.5569335 -0.48086724 0.17536663 173 163 140
-1.5480411 -0.48074773 0.17336877 169 158 136
-1.5394447 -0.48039439 0.1727424 174 164 139
-1.5004247 -0.48033005 0.17031893 171 160 138
-1.4908774 -0.4808507 0.17705286 170 159 137
-1.489996 -0.48031789 0.17034464 173 162 140
-1.4763176 -0.4805761 0.17486605 170 159 137
-1.4654603 -0.48037285 0.17322977 176 166 141
-1.4458287 -0.48061681 0.17340617 170 159 136
-1.4394426 -0.48093545 0.1749008 174 164 139
-1.4267545 -0.4806577 0.17328928 173 163 138
-1.4143313 -0.48100001 0.17295504 172 161 137
-1.4074657 -0.48114198 0.17266759 173 163 138
-1.3907685 -0.48100001 0.17212036 172 162 137
-1.3813283 -0.48086059 0.17412803 168 161 134
-1.3666675 -0.4809745 0.17485973 173 163 137
-1.3521791 -0.48100001 0.17242955 172 161 139
-1.3444245 -0.4806748 0.17712317 175 165 138
-1.3322047 -0.48028991 0.17043224 171 159 135
-1.3264577 -0.48083973 0.17608702 172 163 138
-1.3169669 -0.48029354 0.17856544 173 161 139
-1.3055811 -0.48015925 0.17287697 182 172 145
-1.2979085 -0.48063159 0.17348111 175 167 140
-1.2861727 -0.48030883 0.17313841 182 172 147
-1.2659411 -0.48041371 0.17207694 185 173 147
-1.2341497 -0.48050553 0.17816462 178 168 141
0.92460889 -0.48079261 0.17654926 207 202 178
0.93360609 -0.48156223 0.174243 209 202 179
0.95639122 -0.48336124 0.1706257 204 199 170
-1.6370567 -0.47999999 0.17582767 170 163 139
-1.623559 -0.48000002 0.17398968 167 159 136
-1.5971085 -0.47967243 0.17639211 176 165 140
-1.5809621 -0.47995299 0.1725179 172 164 141
-1.5769997 -0.47957358 0.17226617 168 157 135
-1.531045 -0.48000002 0.17742789 169 158 136
-1.5235945 -0.47999999 0.17619114 172 162 137
-1.5112938 -0.48000002 0.1763339 168 157 135
-1.4526913 -0.47999999 0.17384288 171 160 137
-1.3364304 -0.47999999 0.17566746 171 161 136
-1.3003882 -0.47999999 0.17859301 175 165 140
-1.2769363 -0.47999996 0.17417473 183 172 144
-1.2556255 -0.48000002 0.17788514 180 170 143
-1.2453372 -0.47999999 0.17666428 180 168 144
-1.2375669 -0.47999999 0.17066553 176 169 143
-1.2266636 -0.47999996 0.17693701 179 167 141
-1.2157943 -0.48000002 0.1779317 179 168 143
-1.2046446 -0.47996482 0.17433453 177 167 141
-1.1986549 -0.48000002 0.17266311 177 167 142
-1.1880652 -0.47967622 0.17527439 177 167 141
-1.1760958 -0.48000002 0.17575553 175 168 140
-1.1653961 -0.47999999 0.17385463 178 168 141
-1.1532625 -0.48000002 0.1749302 178 168 141
-1.1440116 -0.47987184 0.17555614 182 170 143
-1.1349124 -0.47999996 0.17366689 181 171 143
-1.127977 -0.47997767 0.17685488 182 171 143
-1.1157444 -0.47998965 0.1746626 179 167 141
-1.0924186 -0.47990143 0.17535955 181 170 142
-1.0741662 -0.4792226 0.17676508 183 173 146
-1.0654075 -0.47951877 0.17711183 181 171 146
-1.0558152 -0.47939378 0.17537929 186 175 147
-1.0468494 -0.47899997 0.17346379 184 174 147
-1.0351923 -0.47900003 0.17481378 184 174 147
-1.0277474 -0.479 0.1744906 181 171 144
-1.017764 -0.47899997 0.17358248 181 173 146
-1.0062178 -0.47878805 0.17500222 181 173 143
-0.99426007 -0.47813854 0.17331281 180 170 143
-0.98441696 -0.47810045 0.17604069 183 174 148
-0.97148311 -0.47834873 0.17377496 185 174 151
-0.96210074 -0.47799999 0.17622951 188 178 152
-0.95162785 -0.47799999 0.17637101 187 177 150
-0.94457603 -0.47799999 0.17461476 189 178 153
-0.92498398 -0.47800002 0.17627005 188 178 153
-0.91219509 -0.47799999 0.17668784 187 177 150
-0.90390539 -0.4779889 0.17602654 188 178 151
-0.8949331 -0.47788295 0.17389825 191 181 154
-0.88592654 -0.47724846 0.17627305 195 188 159
-0.87584877 -0.47710791 0.17936623 195 185 158
-0.86653149 -0.47730449 0.17730463 196 187 158
-0.8571375 -0.477 0.17441839 193 186 157
-0.84154958 -0.47716266 0.1720442 198 191 163
-0.82441884 -0.47706899 0.17744038 192 185 158
-0.81421232 -0.47728622 0.17494072 197 190 162
-0.80576682 -0.477258 0.17706886 197 189 161
-0.79417151 -0.477 0.17760894 198 189 162
-0.78412604 -0.47704858 0.1775957 196 187 160
-0.7732923 -0.47720027 0.17766625 204 194 167
-0.76369435 -0.477 0.17747447 198 188 161
-0.75729072 -0.47699434 0.17483322 199 190 162
-0.74701482 -0.47713467 0.17581305 203 193 165
-0.73388171 -0.47727075 0.17438638 202 194 163
-0.72514427 -0.47681308 0.17303064 201 192 163
-0.71479511 -0.47616026 0.17293492 202 193 167
-0.70518875 -0.47672787 0.17372264 198 188 162
-0.69183993 -0.47621086 0.17425197 197 187 164
-0.68392491 -0.47600001 0.17465632 186 176 151
-0.67464018 -0.47600001 0.17523602 192 180 154
-0.66618997 -0.47600001 0.17707261 190 180 153
-0.65571725 -0.47545111 0.17620124 185 176 151
-0.64835322 -0.47594154 0.17414486 180 169 143
-0.62067044 -0.47507188 0.17344506 200 186 159
-0.61259615 -0.475115 0.17541297 201 188 161
-0.60438985 -0.47514358 0.17534639 199 190 165
-0.59280974 -0.47539654 0.1738555 199 192 165
-0.58280909 -0.47545683 0.17485183 202 192 167
-0.57704186 -0.47583589 0.17174309 204 194 169
-0.56800836 -0.47504467 0.17611967 197 190 164
-0.55516034 -0.47500002 0.17452061 202 194 167
-0.54301035 -0.47499996 0.17628372 202 191 166
-0.52837551 -0.47501516 0.1769883 196 189 162
-0.51717097 -0.47520861 0.17414205 200 191 165
-0.50373423 -0.47589159 0.1732333 200 192 168
-0.49221933 -0.47591308 0.17387989 195 186 160
-0.4867613 -0.47600001 0.17016961 187 177 152
-0.47555649 -0.47598442 0.17437343 197 187 160
-0.46253556 -0.47600001 0.17319006 202 192 165
-0.45887479 -0.47600001 0.1748624 201 194 166
-0.44741741 -0.47600001 0.17553301 198 189 159
-0.43762919 -0.47600001 0.1724301 195 186 157
-0.42539382 -0.47600001 0.1734862 196 185 157
-0.40318576 -0.47603303 0.17434029 179 170 140
-0.39727053 -0.4760628 0.17144981 197 188 156
-0.38140491 -0.47598964 0.17327198 207 196 166
-0.37386402 -0.47563192 0.17465752 195 184 156
-0.36418954 -0.47499996 0.17590943 203 191 164
-0.35953504 -0.47500002 0.17387164 202 187 164
-0.34630889 -0.47499999 0.17421243 185 174 144
-0.33505678 -0.47488117 0.17675684 199 187 156
-0.32221305 -0.47400004 0.1732465 187 176 147
-0.3148616 -0.47399998 0.17558491 214 207 176
-0.30474916 -0.47400001 0.17210324 203 192 162
-0.29637355 -0.47399998 0.17250767 141 135 111
-0.28973848 -0.47399998 0.17179148 194 182 156
-0.27683195 -0.47341403 0.17439049 173 161 132
-0.2649582 -0.47299999 0.17528227 191 181 151
-0.2546483 -0.47299999 0.17252004 205 194 168
-0.24695213 -0.47299999 0.1729947 179 168 146
-0.23186865 -0.47223324 0.17574862 199 188 164
-0.22705767 -0.47216663 0.17544392 192 179 153
-0.21351752 -0.472 0.17452684 176 165 148
-0.20780264 -0.472 0.17347576 191 180 158
-0.19187403 -0.472 0.17348486 177 167 142
-0.18615015 -0.47193256 0.17236285 191 181 152
-0.17415377 -0.4714857 0.17123449 213 188 33
0.39523089 -0.47000003 0.17360875 187 174 148
0.40807238 -0.4706766 0.17889141 213 200 183
0.41739449 -0.47051701 0.17452073 176 165 148
0.42659637 -0.47099999 0.17911816 217 206 178
0.43422231 -0.47099999 0.17548746 146 133 120
0.44522384 -0.47130609 0.17284101 184 174 152
0.45885533 -0.472 0.17695436 174 162 136
0.46565527 -0.472 0.17843369 187 176 155
0.47575659 -0.472 0.17548293 190 180 162
0.48654333 -0.472 0.17692633 176 165 144
0.50337386 -0.472 0.17404075 180 167 148
0.51257932 -0.47204071 0.17528975 177 166 144
0.5231998 -0.47270891 0.17580831 180 168 145
0.53770322 -0.47299999 0.17342502 192 179 155
0.54518521 -0.47299999 0.17306027 180 169 146
0.55615616 -0.47354847 0.17728543 190 180 159
0.56711602 -0.47373658 0.17446965 189 178 155
0.57672369 -0.47400001 0.17648372 196 185 165
0.58646435 -0.47402263 0.17399228 190 179 153
0.59651959 -0.47455034 0.17737119 198 187 165
0.60812229 -0.47500002 0.17915484 210 200 175
0.61756426 -0.47499999 0.17611155 203 193 168
0.62379223 -0.475218 0.17371902 182 174 146
0.63158739 -0.47512138 0.17220594 212 203 172
0.64568436 -0.47630966 0.1756722 198 189 160
0.65419626 -0.47630388 0.17497143 192 182 157
0.66351992 -0.47694829 0.17332397 198 188 163
0.67883265 -0.47700003 0.17754696 168 157 135
0.68520695 -0.477 0.17059839 205 193 171
0.69379473 -0.47749498 0.1748196 193 183 158
0.70513755 -0.47775248 0.17266041 191 183 155
0.71161759 -0.47789496 0.17258537 195 183 156
0.72547823 -0.47780326 0.17744045 206 193 132
0.73503113 -0.47805351 0.17379808 126 118 76
0.74880004 -0.47698653 0.17586681 67 66 48
0.75371087 -0.4760766 0.17640969 96 95 60
0.76563293 -0.47455657 0.17722626 36 43 48
0.7734189 -0.47441065 0.17426844 162 161 139
0.78318918 -0.47403777 0.17655426 196 189 161
0.80406135 -0.47479427 0.17021346 200 190 165
0.81755203 -0.47437733 0.1750662 185 177 150
0.82361412 -0.47487509 0.17135358 215 207 180
0.83593082 -0.47500712 0.17334285 194 187 162
0.84716469 -0.47554266 0.17493561 199 193 166
0.85940731 -0.47598019 0.17710911 202 193 165
0.86569673 -0.47603631 0.17422014 195 186 161
0.87695056 -0.47635269 0.17361963 91 88 77
0.88281411 -0.4768213 0.17575622 128 123 112
0.89081228 -0.477 0.17624804 224 219 199
0.90490437 -0.47895291 0.17244147 198 194 175
-0.16353895 -0.46927896 0.17522883 165 143 21
-0.15216637 -0.4674691 0.17596483 230 203 25
-0.14432932 -0.46711013 0.17063448 231 204 29
-0.13613707 -0.46800631 0.17526451 225 199 33
-0.12641239 -0.46882689 0.17440671 184 172 149
-0.11370857 -0.46899998 0.17545003 153 142 121
-0.10458032 -0.46900001 0.17558968 167 159 139
-0.092803523 -0.46900001 0.17271593 202 199 173
-0.085746408 -0.46900004 0.17540875 206 197 173
-0.073382728 -0.46899998 0.17546605 175 171 156
-0.061512738 -0.46899998 0.17499697 183 178 157
-0.052904092 -0.46900001 0.17591241 183 175 160
-0.045420203 -0.4689486 0.17627823 205 193 171
-0.036564406 -0.46824017 0.17629941 177 166 146
-0.025554253 -0.46799996 0.17369695 173 164 144
-0.016214117 -0.46799999 0.1751855 176 167 147
-0.0030543287 -0.46800002 0.17449234 203 194 165
0.0019440318 -0.46799999 0.17460306 203 191 168
0.013780763 -0.46799999 0.17599508 183 171 146
0.024832003 -0.46774256 0.1781958 171 164 145
0.0312295 -0.46716878 0.17266004 156 144 120
0.044441693 -0.46700001 0.1752664 181 174 153
0.058998968 -0.46700001 0.174127 196 185 164
0.074168108 -0.46700001 0.17467713 175 165 142
0.086061038 -0.46700001 0.17545515 209 200 182
0.10480741 -0.46626624 0.17384247 102 99 92
0.11737374 -0.46539748 0.17162769 99 90 83
0.1250831 -0.4657622 0.17338501 107 99 90
0.1367567 -0.46613404 0.17705935 101 96 88
0.14770257 -0.46487272 0.17560677 158 148 128
0.1535871 -0.46421498 0.17644718 183 176 159
0.16700293 -0.46514377 0.17880388 160 149 132
0.17482969 -0.4628287 0.17745388 151 118 108
0.18564573 -0.46400851 0.17996974 142 150 127
0.19876324 -0.46013075 0.17713077 133 110 102
0.20513657 -0.46269441 0.17900994 174 182 162
0.21944982 -0.46218392 0.17568627 159 118 114
0.2220929 -0.46192241 0.17510554 163 100 101
0.23438451 -0.46593109 0.17908587 194 176 155
0.24574822 -0.46423352 0.17362462 179 158 140
0.25829774 -0.46630591 0.17406783 197 183 166
0.26349157 -0.46736848 0.17256507 169 154 138
0.27489612 -0.46878681 0.17594625 183 174 157
0.28495654 -0.46897185 0.1789111 212 205 187
0.29348877 -0.46887258 0.17784102 192 186 164
0.30096301 -0.46900001 0.1719283 197 187 162
0.31567231 -0.46900001 0.17668866 183 171 152
0.32636297 -0.46899998 0.17101093 177 165 145
0.33338428 -0.46899998 0.17289893 194 183 163
0.34636363 -0.46900001 0.1744377 204 192 170
0.35237741 -0.46900001 0.1739527 166 155 139
0.36733425 -0.46900001 0.17624491 183 168 145
0.3779282 -0.46980155 0.17812812 190 175 145
0.38301739 -0.46999997 0.17623517 157 144 127
0.16432635 -0.45910847 0.17198771 173 145 134
0.17230371 -0.45600861 0.17030011 131 45 52
0.18225724 -0.45672965 0.17198893 63 43 45
0.19664402 -0.45639679 0.17339678 96 32 41
0.20830955 -0.45722389 0.17275839 142 56 63
0.22454657 -0.45723718 0.17064293 181 123 122
-0.53969479 -0.22486764 0.17478538 216 219 208
-0.53494161 -0.21465367 0.1732489 215 215 209
-0.52884966 -0.21208282 0.17573529 189 196 180
-0.52690595 -0.20345934 0.1725951 201 205 195
-0.52239728 -0.19585948 0.17190744 178 186 169
-0.51308954 -0.18484311 0.1732595 120 126 118
-0.50721556 -0.17613022 0.17745437 157 168 146
-0.50358927 -0.16684544 0.17587464 146 160 136
-0.50252008 -0.15482897 0.17536896 103 123 85
-0.50432426 -0.14437217 0.17616911 76 102 56
-0.50845695 -0.13469775 0.175632 82 105 60
-0.51263452 -0.1258029 0.1700539 91 114 70
-2.1249709 -0.49026179 0.18361482 160 152 139
-2.0371871 -0.49026257 0.18800747 179 167 151
-2.2212384 -0.48739073 0.18759345 181 172 155
-2.2121387 -0.48746127 0.18409954 134 127 117
-2.2091162 -0.48787448 0.18085399 184 175 158
-2.1235161 -0.48869342 0.18870711 162 154 141
-2.1142435 -0.48608419 0.18495895 119 113 105
-2.1049924 -0.48589399 0.18459961 177 168 151
-2.0958266 -0.48679465 0.18618765 44 42 43
-2.0755365 -0.48664451 0.18143468 161 154 138
-2.0233207 -0.48558 0.18588369 158 151 135
-2.0154972 -0.48476794 0.18419451 174 162 147
-2.0054896 -0.48500001 0.18647537 175 163 147
-1.9941654 -0.4859753 0.18473224 161 153 138
-1.9855078 -0.48751613 0.18409567 160 152 137
-1.9744574 -0.48775485 0.1831965 164 155 139
-1.9662164 -0.48481759 0.18562639 165 156 141
-1.9540049 -0.48378372 0.18118572 161 154 138
-1.9439964 -0.48471239 0.18621196 166 158 141
-1.9344145 -0.48472011 0.18623495 162 154 138
-1.9205772 -0.48430577 0.18974726 162 153 138
-1.9155205 -0.4841454 0.18408114 172 161 144
-1.8951 -0.48545617 0.1831166 162 153 138
-1.8815502 -0.48507899 0.18749565 171 164 146
-1.873943 -0.4847762 0.18761078 163 160 141
-1.8613688 -0.48493773 0.18363795 164 161 142
-1.8534747 -0.48460317 0.18315519 151 155 136
-1.8443973 -0.48320842 0.18648991 147 156 135
-1.8340389 -0.48383823 0.18573518 156 154 135
-1.8262627 -0.48436952 0.18686578 154 151 132
-1.8138539 -0.48408818 0.18398686 159 157 137
-1.8034339 -0.48467556 0.18534118 166 159 137
-1.7946374 -0.48448581 0.18605267 173 167 145
-1.7846261 -0.48411882 0.18813185 171 164 140
-1.7727269 -0.48441914 0.18319464 169 161 140
-1.7663543 -0.48373473 0.18707708 176 165 144
-1.7565151 -0.48306051 0.18409583 173 163 142
-1.7423007 -0.48300219 0.18312912 170 162 143
-1.7359444 -0.48339725 0.18472166 177 167 145
-1.7279817 -0.48309219 0.18723895 175 164 144
-1.7181219 -0.48284349 0.18558653 174 163 142
-1.7041218 -0.48263896 0.18821068 181 170 144
-1.6961482 -0.48237994 0.18887714 168 160 139
-1.6872771 -0.48302209 0.18210463 175 164 143
-1.6767482 -0.48286414 0.18418109 172 163 141
-1.6660098 -0.48222998 0.18611972 176 168 144
-1.6535178 -0.48042777 0.18388009 171 161 140
-1.647898 -0.48048824 0.18260986 168 160 137
-1.6194432 -0.48012641 0.18134838 166 158 135
-1.6057451 -0.48045957 0.18841413 171 163 136
-1.5815024 -0.48025966 0.18100981 169 158 136
-1.5734625 -0.48057619 0.18369724 169 162 136
-1.5637593 -0.48068151 0.18361363 172 163 139
-1.5541184 -0.48035794 0.18549412 173 165 139
-1.5406308 -0.4802112 0.18015097 172 161 139
-1.5111203 -0.4801724 0.18773431 171 160 138
-1.502876 -0.48029277 0.18533102 172 161 139
-1.4947405 -0.48088932 0.18472134 169 161 134
-1.4874341 -0.48100001 0.18010405 172 161 139
-1.4674951 -0.48000705 0.1821025 175 165 140
-1.4326158 -0.48017943 0.1852489 173 162 137
-1.4270711 -0.48100001 0.18101564 177 167 142
-1.4169552 -0.48132229 0.18384966 172 162 138
-1.4056145 -0.48148865 0.18421735 176 165 139
-1.3958946 -0.48137724 0.18405019 173 163 138
-1.3835678 -0.48059297 0.18413839 176 164 139
-1.3773882 -0.48036551 0.18247968 171 161 136
-1.3660173 -0.48146376 0.18343167 171 161 136
-1.355472 -0.48103172 0.18702346 172 163 137
-1.3460503 -0.48099864 0.18408781 173 162 137
-1.3321271 -0.48088846 0.18901451 172 162 137
-1.3252677 -0.48087135 0.18472289 173 163 138
-1.3153732 -0.48035151 0.18558066 175 165 138
-1.3062339 -0.48026457 0.18677354 174 164 139
-1.2920372 -0.48045433 0.18055789 173 161 137
-1.286355 -0.48021084 0.18127616 176 166 141
-1.233247 -0.48066244 0.18550064 180 170 145
-1.2247677 -0.48021168 0.18461138 182 171 144
0.91173792 -0.48039001 0.18054198 209 202 183
-1.6419818 -0.47999999 0.18347116 168 160 137
-1.6342773 -0.47999996 0.18243429 172 162 140
-1.6235873 -0.48000002 0.18188611 170 161 138
-1.6180735 -0.47999999 0.18978751 168 160 139
-1.5945795 -0.47930539 0.18994623 178 167 139
-1.5877328 -0.47977754 0.18015695 166 158 135
-1.5452483 -0.47967988 0.18901208 172 161 139
-1.5364642 -0.47956839 0.18690409 170 160 137
-1.5298979 -0.47999996 0.18602255 172 161 139
-1.5184665 -0.47999996 0.18333131 173 162 139
-1.5064063 -0.48000002 0.18511313 170 160 135
-1.4778862 -0.47964498 0.18799189 177 165 140
-1.4653552 -0.47999999 0.1873388 175 163 140
-1.4549135 -0.47999996 0.18444979 172 161 138
-1.3001063 -0.48000002 0.18796653 175 165 140
-1.2936485 -0.47999999 0.18623209 175 165 140
-1.2768519 -0.47999999 0.18619093 174 164 139
-1.2654092 -0.47999999 0.18739676 175 165 140
-1.2530773 -0.47999999 0.18136111 178 166 142
-1.2471201 -0.47999996 0.18552685 180 170 143
-1.239996 -0.47999999 0.18475339 179 167 141
-1.2127529 -0.47978449 0.18728335 179 169 144
-1.2050663 -0.4793902 0.1875135 183 171 147
-1.1980822 -0.47928154 0.18734828 175 164 142
-1.1850832 -0.47999999 0.18193051 180 170 143
-1.1791553 -0.47999996 0.18178746 180 170 143
-1.1626518 -0.47999999 0.185637 180 171 142
-1.156122 -0.47975418 0.18683474 189 175 148
-1.140542 -0.47924745 0.18985297 181 169 143
-1.1356771 -0.47936225 0.18220767 177 165 139
-1.1228973 -0.47968805 0.18380387 181 168 142
-1.1033373 -0.47952494 0.18538566 183 170 144
-1.0944271 -0.47956038 0.18421459 187 174 147
-1.0819805 -0.47900003 0.18658574 186 174 148
-1.0779982 -0.47900933 0.18427368 186 174 148
-1.0644864 -0.47905719 0.18514933 185 174 148
-1.0544789 -0.47908655 0.18462336 186 175 149
-1.0473027 -0.47893411 0.18613513 184 172 146
-1.0330408 -0.4789896 0.1873107 184 174 146
-1.0208641 -0.47875541 0.18341173 185 176 147
-1.0147878 -0.47875798 0.18463188 183 173 148
-1.006063 -0.478522 0.18832141 185 175 148
-0.99572664 -0.47839561 0.18348055 185 175 148
-0.98443317 -0.47799999 0.18570036 183 173 146
-0.97313249 -0.47799999 0.1845009 186 176 150
-0.96330482 -0.47799999 0.18395501 188 178 151
-0.95296931 -0.47799999 0.18528087 187 177 152
-0.93636465 -0.47799286 0.18420707 189 178 153
-0.92444551 -0.47758877 0.18867126 189 179 152
-0.91542256 -0.47799999 0.18081738 187 177 151
-0.90488237 -0.47778845 0.18714517 187 178 152
-0.89179051 -0.4776102 0.1825465 187 177 152
-0.87598109 -0.477 0.18822744 188 178 150
-0.85242832 -0.477 0.18892029 192 182 155
-0.84663773 -0.477 0.18330215 195 187 160
-0.83432436 -0.477 0.18455197 190 183 154
-0.82354289 -0.47697851 0.18716939 55 52 50
-0.81603557 -0.47670713 0.18438335 132 126 111
-0.80565208 -0.47668144 0.18450668 196 189 163
-0.79738426 -0.477 0.18584108 194 187 159
-0.7816577 -0.477 0.18553451 96 93 82
-0.77556151 -0.47679654 0.18428557 158 151 131
-0.76595134 -0.47633639 0.18352611 203 193 165
-0.75138265 -0.477 0.1834061 198 188 161
-0.74577338 -0.47684583 0.18611379 198 190 161
-0.7361716 -0.47684634 0.18201004 202 194 163
-0.72571266 -0.47600001 0.1885349 201 193 164
-0.71708769 -0.47599998 0.18319035 202 193 165
-0.70268893 -0.47609973 0.18438375 198 188 163
-0.69729018 -0.47613972 0.18441531 204 194 168
-0.68988657 -0.47600001 0.18307416 203 193 168
-0.67561948 -0.47590488 0.18678795 200 189 165
-0.66388065 -0.47557634 0.1832685 200 189 164
-0.64741921 -0.47518128 0.18569043 194 184 158
-0.63373029 -0.47589967 0.18277299 189 177 149
-0.62367892 -0.47526383 0.18279286 190 178 150
-0.61582977 -0.47499999 0.18570888 189 178 150
-0.60643512 -0.47500002 0.18141721 189 175 148
-0.59520352 -0.47493571 0.18842468 193 182 154
-0.58626032 -0.47483253 0.18062954 196 187 159
-0.57209396 -0.47499996 0.1823387 195 183 159
-0.56218535 -0.47499999 0.18736526 190 180 153
-0.55498582 -0.47497752 0.18300129 201 191 166
-0.53365445 -0.47499996 0.18335138 201 194 168
-0.52504241 -0.47500002 0.18647589 189 179 154
-0.51516485 -0.47499999 0.18418458 197 187 162
-0.50591367 -0.47533762 0.18458536 196 189 167
-0.49545085 -0.47505265 0.18655172 192 182 161
-0.48615924 -0.47557744 0.18396151 195 187 160
-0.47482002 -0.47586167 0.18610908 197 187 160
-0.4677031 -0.47545004 0.18468031 186 175 148
-0.45494363 -0.47595426 0.1828367 186 176 151
-0.44236749 -0.47521961 0.18712077 173 164 137
-0.4325875 -0.47592986 0.18644191 197 188 161
-0.42530641 -0.47555602 0.18573782 199 192 164
-0.41644368 -0.47586679 0.18294683 200 187 160
-0.40466419 -0.47590294 0.18511125 197 183 153
-0.39496896 -0.47557437 0.18526538 197 185 158
-0.38232976 -0.47511211 0.18612073 186 174 150
-0.36927783 -0.47510636 0.18024953 202 190 164
-0.35561523 -0.47499996 0.18352374 213 202 177
-0.34552556 -0.47480708 0.18619335 194 185 154
-0.33868116 -0.4747414 0.18431702 180 167 135
-0.32547849 -0.47406876 0.18397969 175 166 140
-0.31218293 -0.47400001 0.18621783 192 180 153
-0.30274713 -0.47399679 0.18738505 208 197 171
-0.29567111 -0.47391796 0.18595041 176 163 136
-0.2849918 -0.47393864 0.18042748 169 158 128
-0.27512643 -0.47318268 0.18140128 201 192 161
-0.26339412 -0.47299999 0.18553752 206 198 172
-0.25553894 -0.47299999 0.18758917 210 199 171
-0.24827239 -0.47300002 0.18442051 191 179 153
-0.23534419 -0.47233495 0.18656215 198 190 162
-0.22504328 -0.472 0.1892066 184 176 153
-0.21427917 -0.472 0.18800777 176 164 145
-0.20457664 -0.472 0.18643615 201 192 170
-0.1940064 -0.472 0.18578427 172 163 141
-0.18315142 -0.47141916 0.18275794 200 190 161
-0.17465687 -0.4710542 0.1856515 47 47 32
-0.16725209 -0.47051162 0.1851353 108 98 6
0.39380088 -0.47032201 0.18514614 150 138 116
0.40808269 -0.47073942 0.18299192 193 181 157
0.41412666 -0.47093233 0.18675424 190 177 160
0.43279755 -0.47099999 0.18373632 215 203 187
0.44262779 -0.47110897 0.18433186 184 175 158
0.45366532 -0.4719367 0.18604006 164 154 136
0.46900833 -0.472 0.18513757 169 158 144
0.47386265 -0.472 0.1867941 199 188 168
0.48560387 -0.472 0.18641017 179 167 146
0.49575609 -0.472 0.18574819 187 173 152
0.50485224 -0.47219718 0.18542038 169 157 137
0.5135752 -0.47279122 0.18649681 178 170 149
0.52435637 -0.47292385 0.18689451 195 180 159
0.53453672 -0.47299999 0.18485035 168 156 134
0.54597771 -0.47299999 0.18696178 199 188 166
0.55624652 -0.47377923 0.18358369 179 169 145
0.56238735 -0.47400001 0.18412635 175 164 142
0.57537335 -0.47400001 0.18469496 204 193 167
0.58227289 -0.47431856 0.18666536 196 186 161
0.59347522 -0.47446883 0.18190584 197 186 162
0.60636193 -0.47500002 0.18529014 193 183 159
0.61634994 -0.47504491 0.18089312 199 188 166
0.62549841 -0.475357 0.18171445 183 173 148
0.63451743 -0.47620073 0.18271288 200 187 164
0.64262038 -0.47663924 0.18010153 178 166 142
0.65461653 -0.4767848 0.18406586 196 188 161
0.66352987 -0.47711638 0.18572092 198 189 164
0.67483026 -0.47760925 0.18407984 186 176 152
0.68639934 -0.47751588 0.18473119 185 175 148
0.69721204 -0.47796294 0.18584047 198 189 161
0.71464914 -0.47760087 0.18689956 195 186 158
0.72572291 -0.47655934 0.18457867 209 194 113
0.73418832 -0.47724447 0.18315242 235 218 77
0.74371272 -0.4769268 0.18361422 119 108 44
0.75713873 -0.47439304 0.18680644 54 59 55
0.76099813 -0.47396457 0.18687207 44 52 54
0.77510667 -0.47334567 0.18501532 198 191 163
0.78483909 -0.47299999 0.18814901 193 186 160
0.79332453 -0.47312868 0.18389237 189 181 156
0.80628729 -0.47339401 0.18359418 198 192 166
0.81719327 -0.47353002 0.18841533 207 200 175
0.82336032 -0.47450203 0.18266374 193 188 159
0.83405918 -0.47446764 0.18431143 210 203 175
0.85427284 -0.47512567 0.18415976 182 177 153
0.86590707 -0.47581029 0.18851671 198 188 163
0.87388897 -0.47606713 0.18621609 200 190 165
0.88562185 -0.47706103 0.18566599 163 157 143
0.89295608 -0.47771823 0.18302676 196 192 171
0.90497017 -0.47920662 0.18274716 198 191 172
-0.15471169 -0.46857774 0.18776706 233 205 19
-0.14253327 -0.4675678 0.18405318 228 202 32
-0.13182193 -0.46907488 0.18741176 199 187 115
-0.12496201 -0.46963421 0.18792982 188 179 154
-0.11415725 -0.46936789 0.18608074 157 143 118
-0.10302271 -0.46902657 0.18446597 142 135 116
-0.075506009 -0.46900001 0.18569393 187 179 153
-0.064516053 -0.46899998 0.18276119 194 187 165
-0.052198883 -0.46899998 0.18311141 196 192 168
-0.041449472 -0.46899998 0.18545796 175 169 152
-0.034849573 -0.46887678 0.18984979 133 127 111
-0.021417033 -0.46799999 0.18300584 202 193 169
-0.015627339 -0.46799999 0.18641663 177 166 144
0.0041658985 -0.46800002 0.18572782 169 160 140
0.014123341 -0.46799999 0.18492845 205 193 167
0.025627039 -0.46780032 0.18426318 159 151 129
0.034686837 -0.46731928 0.18495297 193 185 162
0.048762247 -0.46703142 0.18447939 189 181 162
0.053899657 -0.46700001 0.18466181 209 204 184
0.065313458 -0.46700001 0.18638153 186 179 159
0.075573161 -0.46700001 0.18151198 177 171 145
0.08716815 -0.46700001 0.18351243 170 160 145
0.097789124 -0.46700001 0.18815722 201 193 172
0.10060367 -0.46700001 0.18412134 176 168 147
0.11746925 -0.46685892 0.18430038 161 150 132
0.12654774 -0.4669815 0.18736158 170 160 141
0.13464275 -0.46678227 0.18366817 206 196 170
0.14417876 -0.46678582 0.18626927 192 185 168
0.15198973 -0.46636873 0.18282181 196 188 175
0.16804549 -0.46618026 0.18302774 190 182 159
0.17120123 -0.46630532 0.18551201 196 185 168
0.18623677 -0.46613327 0.18379459 149 142 128
0.19492802 -0.46645302 0.18513063 130 122 112
0.20199929 -0.4665305 0.18387444 192 183 167
0.21396676 -0.46588358 0.18337707 192 177 159
0.22576088 -0.467161 0.1856378 192 181 159
0.23906121 -0.46726772 0.18272522 175 162 143
0.24528474 -0.46776575 0.18535012 175 164 144
0.2653603 -0.46880591 0.18442293 178 167 148
0.27306181 -0.46900001 0.18867418 162 151 133
0.28432542 -0.46881232 0.18421891 186 176 159
0.29615831 -0.46845192 0.18535316 178 166 144
0.30203277 -0.46900001 0.18095961 201 190 172
0.31501648 -0.46900001 0.185588 165 155 135
0.32742104 -0.46900001 0.18096299 182 171 153
0.33914286 -0.46900004 0.18936773 195 183 159
0.34735775 -0.46900001 0.18237521 177 166 142
0.35642114 -0.46921706 0.18521073 163 150 127
0.3668111 -0.46965843 0.18324398 160 147 131
0.37026471 -0.46957085 0.18284902 183 172 154
0.38181999 -0.46999997 0.18137902 184 168 144
-0.5106343 -0.18184312 0.18770355 143 159 130
-0.50504518 -0.17209432 0.18022601 96 112 65
-0.5051437 -0.16567028 0.18576869 125 141 109
-0.50265789 -0.15671559 0.18422751 81 103 54
-0.4986681 -0.15053765 0.18826169 73 99 51
-0.50313222 -0.14498018 0.1822411 79 104 57
-2.0401647 -0.49031824 0.19482628 179 167 151
-2.2241409 -0.48668894 0.1951796 168 159 145
-2.2195573 -0.48676479 0.19384256 175 166 150
-2.1249137 -0.48709527 0.1964716 162 155 139
-2.1178691 -0.48562482 0.19473116 168 160 145
-2.1066213 -0.48614419 0.19803621 180 171 154
-2.095793 -0.48743021 0.19381797 173 166 150
-2.0861468 -0.48876923 0.19590373 170 162 147
-2.077703 -0.48800173 0.19374511 173 166 150
