0.049269 -0.029648 -0.150522
-0.160239 -0.021640 -0.037176
0.189747 -0.000054 0.086754
0.035782 0.009603 0.126929
0.037362 -0.007682 -0.220862
0.003215 -0.014121 -0.160006
0.035964 -0.005549 -0.154235
0.058268 -0.019690 0.198658
-0.019058 -0.013428 0.253989
0.016319 0.038456 -0.289673
0.062001 -0.033036 0.175168
0.055127 0.001070 0.116237
0.035936 0.003840 -0.248885
-0.017224 -0.020057 -0.154776
-0.032790 -0.017136 -0.044724
-0.002756 0.026319 -0.355807
-0.065732 -0.027831 0.142483
0.023084 -0.027895 0.247734
0.081828 -0.004148 0.211256
0.241041 -0.004368 0.114958
0.104497 -0.004407 0.282488
-0.028425 0.005704 0.114058
0.066581 0.003727 0.128276
0.020162 0.034092 -0.231785
0.023536 -0.020416 0.200091
-0.118793 0.002509 0.014764
0.048025 -0.009481 0.074223
-0.060040 0.012073 -0.153686
0.000031 0.024871 0.101203
-0.017747 0.040385 -0.275652
0.057992 0.008924 0.118999
0.042026 -0.010027 -0.183680
-0.209336 0.000049 0.071051
-0.027975 -0.007738 -0.085003
0.158561 -0.010021 0.012588
-0.273002 -0.003905 0.133429
0.016105 -0.012213 -0.002399
-0.112048 -0.005578 0.059687
0.087346 0.009562 0.065609
0.003564 0.020124 -0.376953
-0.079498 -0.006045 0.177420
-0.090508 -0.003223 0.214916
0.017103 -0.017371 -0.365356
0.128756 -0.003572 0.095828
-0.010219 -0.013648 -0.214677
0.042223 -0.006360 0.219492
0.041851 -0.043070 0.120778
0.038335 -0.048388 -0.000903
-0.039230 -0.010528 0.043050
0.083572 -0.005447 0.232130
-0.020327 -0.048028 -0.090489
-0.051598 -0.038084 0.131940
-0.022381 -0.010593 -0.035201
0.006493 -0.015050 0.032616
-0.008692 -0.014901 0.112844
0.069026 -0.001963 -0.053297
0.092989 0.098982 0.252175
0.096585 0.119038 0.232742
0.061558 -0.015369 0.157853
-0.024489 0.002614 -0.325245
0.055980 0.010718 -0.004897
-0.002236 0.037394 -0.009490
-0.210955 -0.003768 0.141661
-0.026999 -0.046410 -0.132206
0.041715 0.002947 0.220914
-0.062585 -0.007525 0.086638
-0.078149 0.005010 -0.108051
-0.250967 -0.001295 0.108866
-0.006533 -0.023013 -0.414190
0.027045 -0.037765 0.120902
0.009851 -0.016846 0.103101
0.156460 -0.013843 0.021173
-0.008686 -0.021965 -0.352101
-0.078410 0.005312 0.158678
-0.054323 -0.002690 0.062134
0.082883 0.006923 0.233462
-0.280438 -0.003048 0.113888
-0.115653 -0.020045 -0.065655
-0.033095 0.010921 0.147501
-0.021420 -0.013513 0.270297
-0.079138 -0.001572 0.094960
0.049443 -0.021620 -0.053501
0.146607 -0.003495 0.090181
0.006649 0.062462 -0.258794
0.048622 -0.022928 -0.060665
0.016103 -0.019016 -0.043071
0.162306 -0.017511 0.062613
-0.035859 0.012311 0.073885
0.246940 -0.004515 0.135442
0.029966 -0.008528 -0.254976
-0.037155 0.002401 -0.034606
-0.137321 -0.004182 0.277107
-0.107569 -0.000147 -0.013509
-0.056129 -0.039303 -0.008869
0.046559 0.009466 -0.211303
-0.085541 0.027059 0.185175
0.201140 -0.004191 0.117430
-0.018527 -0.005263 0.208348
-0.046824 -0.049928 -0.049540
-0.077979 0.007588 0.185810
-0.026957 0.007729 0.105829
-0.070621 -0.000089 0.072150
0.016294 -0.013808 -0.292746
-0.017166 0.036947 -0.125715
0.065947 -0.022367 0.213102
-0.050544 -0.032644 -0.101669
-0.019854 0.013348 -0.369080
-0.018525 0.038095 -0.252896
0.048434 0.012536 0.230637
0.065085 -0.027794 0.097867
0.088906 0.056220 0.270248
0.154951 -0.022337 0.019096
0.050868 -0.037339 0.211801
0.088635 0.049038 0.208404
0.022422 -0.007875 -0.296494
-0.049815 0.003386 -0.064280
-0.141355 -0.003965 0.138993
-0.078545 0.002452 0.133757
-0.059815 -0.006357 -0.105061
-0.068223 -0.021329 0.128757
-0.154302 -0.026108 0.058800
0.012583 0.056242 -0.243177
-0.043372 -0.008121 -0.183254
-0.034956 -0.050703 -0.110348
-0.098193 0.122841 0.241361
0.029360 0.015723 -0.162085
0.086387 0.031693 0.221567
-0.029843 0.021343 -0.104989
-0.052069 -0.039802 0.146086
-0.024473 -0.041871 0.044024
0.009555 0.026167 -0.346942
0.044296 0.012422 -0.180256
-0.118986 -0.021814 -0.084479
-0.087387 0.059504 0.190798
-0.051703 -0.041546 0.122933
-0.182405 -0.001335 0.033850
0.091188 0.075310 0.276466
-0.027227 0.010405 -0.089337
-0.050863 -0.031939 0.100041
-0.059992 -0.008905 0.125708
-0.090663 0.075751 0.220031
-0.006047 0.004725 0.243859
0.047509 -0.001226 -0.049941
0.147854 0.002589 0.019401
-0.067908 -0.005179 0.024818
0.085828 0.005213 -0.061102
0.091799 0.003310 -0.069690
0.054651 -0.035772 -0.012028
-0.019152 0.036111 -0.176453
0.048168 -0.017485 -0.165239
0.033909 -0.050227 -0.040212
-0.042686 0.013342 -0.117275
0.031581 0.003419 -0.081877
-0.088161 0.058729 0.219096
-0.024345 -0.040035 0.064508
-0.018996 -0.011514 -0.178319
-0.046032 -0.016494 -0.030771
-0.112025 -0.008350 0.070071
0.033309 -0.047492 -0.125823
0.053872 0.013156 0.009918
-0.150075 -0.004547 0.333983
-0.046998 -0.011037 -0.097911
0.019006 -0.010407 -0.321904
0.010024 -0.016633 -0.296499
0.002231 0.001989 -0.431851
-0.165612 -0.002475 0.058703
0.161374 -0.022129 0.046858
0.061889 0.014176 -0.096419
-0.050662 -0.033346 -0.109790
0.025076 0.011079 -0.248905
0.021597 -0.007610 -0.393261
0.026191 -0.015630 -0.109006
-0.011183 0.020831 0.115747
-0.038504 -0.043369 0.100371
0.118254 -0.004837 0.262048
-0.005816 -0.023985 -0.377125
0.092358 -0.005412 0.202794
-0.190825 -0.004880 0.306241
0.012243 -0.016672 -0.312627
-0.008376 -0.016212 -0.274026
-0.042903 -0.043765 0.106347
-0.023830 -0.012275 0.194097
0.067640 0.002973 0.194015
-0.237805 -0.003819 0.105313
0.005694 0.030134 0.059654
0.123259 -0.026025 0.071220
-0.104923 -0.000018 0.000692
0.010607 0.057241 -0.233333
0.047064 0.012692 0.183816
0.080316 0.020379 0.230922
-0.003628 -0.015346 0.167106
0.088762 0.041922 0.210168
-0.051042 0.008227 0.115482
0.025418 -0.001358 -0.024225
0.015878 0.021023 0.050343
0.013119 0.035166 -0.052743
-0.031894 -0.010537 0.002875
-0.125969 -0.025742 0.052894
0.050528 -0.010226 -0.125710
-0.022782 -0.020311 0.267995
0.020764 0.025334 -0.290107
0.028703 0.009294 0.173495
-0.036245 -0.049172 -0.018019
0.069629 0.012681 -0.000553
0.021313 -0.008814 -0.352407
-0.025700 -0.010583 -0.196526
-0.051511 -0.039434 0.185043
0.007754 0.050724 -0.156978
0.163528 0.002104 0.027105
0.026627 -0.010636 -0.089981
0.094341 0.004391 -0.055484
-0.065449 -0.014387 0.269254
0.215505 -0.003537 0.095286
0.069797 -0.014747 0.203456
0.048449 -0.040255 0.173285
-0.047172 0.012341 0.152746
-0.017081 -0.026936 -0.012294
-0.024412 0.014664 -0.277503
-0.121129 -0.011475 -0.010447
0.001088 -0.024478 -0.388781
-0.061152 -0.035341 0.059540
0.021158 -0.010665 -0.366616
0.028592 -0.039912 0.103161
-0.068688 -0.019677 0.105621
-0.062041 0.004371 0.149026
-0.015760 0.008666 -0.401589
0.032947 -0.009480 -0.194928
0.184941 -0.004605 0.337293
0.012224 -0.013785 0.169837
0.057294 0.007819 0.158889
0.148208 -0.003370 0.098428
0.066995 0.001119 0.214930
0.020329 -0.051754 -0.113158
0.048889 -0.011379 -0.000101
0.098375 0.002662 0.029784
-0.157813 -0.000940 0.047920
-0.014187 -0.011324 -0.054918
-0.017177 -0.012163 0.146478
0.026064 0.020411 -0.151012
-0.044673 -0.010934 0.129365
-0.036691 -0.010243 0.036176
0.110993 -0.013011 0.056705
0.014805 -0.005955 -0.035375
0.080801 0.004980 -0.038842
0.055003 0.000155 -0.195566
-0.071001 -0.006798 0.244973
-0.050620 0.001601 -0.171570
-0.019896 -0.012287 -0.345496
0.064948 -0.027779 0.128541
-0.019785 0.023467 -0.016672
-0.068667 0.005460 0.097560
-0.069869 -0.005288 0.084374
-0.164043 -0.016487 -0.023820
0.020777 0.015218 0.084168
-0.036646 0.002737 0.064300
0.007163 0.024860 0.097383
0.078745 0.006907 -0.078339
0.020271 -0.020068 0.159550
0.021805 0.021802 -0.050781
-0.048250 -0.002090 -0.053205
0.252266 -0.004080 0.115259
0.018245 -0.010165 0.139718
0.020283 -0.026539 0.238373
0.086502 0.032170 0.242702
0.040639 0.015044 -0.152842
-0.003268 -0.020648 -0.313103
0.160826 -0.004876 0.265628
0.037097 -0.037823 0.215680
0.068166 0.010493 0.060074
-0.063155 0.012444 0.160450
-0.030158 -0.000432 0.136851
0.017835 0.002272 -0.077002
-0.058790 -0.030021 0.156880
-0.088119 0.001592 0.057292
-0.026593 0.015655 -0.238182
0.036483 -0.010442 -0.066209
-0.072357 0.007387 -0.134713
-0.037988 0.001486 -0.021027
0.048117 -0.004346 -0.146553
0.095106 -0.004759 0.306541
-0.022662 0.024502 -0.135819
0.020344 -0.036146 0.067625
-0.020641 -0.040334 0.017933
-0.156688 -0.025596 0.008305
0.091253 0.077812 0.193953
0.008569 -0.015117 0.213418
-0.084640 0.014527 0.241796
-0.005199 0.034670 -0.318508
0.006728 -0.014777 -0.183912
0.047522 -0.041158 0.132769
-0.081871 0.023005 0.151889
0.034801 0.007451 -0.123735
-0.041045 -0.048724 -0.004460
-0.038750 -0.008664 -0.200179
-0.102396 0.000698 0.039121
0.018645 0.006656 0.049252
0.072057 -0.009464 0.070847
0.055052 0.014625 -0.141473
0.112970 -0.002380 0.093298
0.043716 -0.049885 -0.024810
-0.273617 -0.003949 0.124919
-0.017857 -0.017578 0.211690
0.058243 0.012381 0.028844
-0.060806 -0.010406 -0.054618
-0.010303 0.023308 -0.360484
-0.051914 0.016572 -0.086476
0.017639 -0.031706 -0.006462
-0.045391 -0.013513 -0.010584
0.032177 -0.052826 -0.061204
0.018582 -0.041035 -0.077390
-0.117729 -0.018169 0.063821
0.073181 -0.006140 0.225123
-0.259313 -0.004258 0.120526
-0.082458 0.009665 0.275665
0.058169 -0.037161 0.162855
0.026857 -0.006888 -0.284275
0.051114 -0.001735 0.199725
0.109617 -0.003212 0.080421
-0.028885 -0.015322 -0.067826
-0.127645 -0.003705 0.133995
0.019476 0.014480 -0.358903
-0.000344 0.033410 -0.333370
0.060538 -0.032121 0.202891
0.068666 -0.010682 0.187760
-0.078953 0.006641 0.216156
0.085221 -0.005445 0.203905
-0.007401 -0.013549 0.091397
-0.073549 -0.008483 0.188788
-0.019686 -0.000295 0.161277
-0.193150 0.000516 0.069604
0.148793 -0.002032 -0.025287
0.051790 -0.021992 -0.041454
-0.080136 0.012845 0.159010
-0.033241 -0.045368 0.031336
-0.119689 -0.021643 -0.103705
0.054614 -0.007558 -0.066365
-0.248563 -0.003459 0.096522
-0.029460 0.010141 0.172041
0.086225 0.007002 0.044465
0.002775 0.050664 -0.139754
-0.083212 0.003351 0.190711
0.032613 -0.010056 0.128395
-0.055840 -0.014103 0.199997
0.134590 -0.029029 0.041687
0.019816 0.017677 -0.339263
-0.019595 -0.004338 0.228782
-0.093433 0.072372 0.251655
0.191442 -0.025321 0.038232
-0.010857 0.010999 0.192756
0.018766 0.032209 -0.155056
-0.056290 -0.033439 0.246846
0.044622 -0.016256 -0.029402
-0.118201 0.001459 0.058816
0.055254 0.007052 -0.171334
0.078835 0.006373 -0.062726
-0.080622 0.001152 0.052302
0.063449 -0.008128 0.154641
-0.052951 0.013979 -0.155090
-0.235217 -0.001720 0.121298
0.019572 -0.010603 0.024876
0.065603 -0.024973 0.174907
0.177131 -0.003086 0.077723
-0.119421 0.001786 -0.038932
0.020999 0.030516 -0.181560
0.057532 -0.019858 0.017338
-0.022197 0.022655 -0.063080
0.154320 -0.004074 0.121719
-0.042601 0.017599 -0.159102
0.083722 0.034014 0.179499
0.017025 -0.017415 0.092270
-0.014231 0.043511 -0.142822
0.114423 -0.003937 0.140187
-0.065901 -0.025449 0.206952
0.018573 -0.037624 -0.034200
0.047825 -0.011640 0.053544
0.018937 -0.045916 -0.106741
0.017245 -0.026009 0.096666
0.029129 -0.009070 -0.096773
-0.009165 -0.015649 0.045257
0.155068 -0.023965 0.040401
0.192136 -0.020717 0.032731
-0.149691 0.002398 0.025839
0.042043 0.013350 0.177246
0.066416 -0.008939 0.248290
0.055667 0.009425 0.218650
-0.100882 -0.005099 0.290571
-0.001593 0.021978 -0.372162
-0.068899 -0.019067 0.226948
-0.024373 -0.001734 -0.373958
0.078286 0.010496 0.189666
-0.028128 0.012579 0.092504
-0.050649 -0.003197 -0.151194
-0.046628 0.003041 -0.015383
-0.145088 -0.029607 -0.041413
0.077745 0.002038 -0.108040
-0.023941 0.012442 -0.291242
0.079873 0.004183 -0.019440
-0.083283 0.020906 0.123923
-0.119841 -0.031835 0.043591
0.017976 -0.035743 -0.051808
-0.024619 0.026908 -0.230439
-0.048307 0.001120 -0.034283
0.039398 0.011057 -0.037819
-0.046759 0.016764 -0.017020
0.184161 -0.001519 0.081029
-0.020778 -0.010657 -0.208667
-0.016610 0.020474 0.058569
0.054667 -0.038211 0.169566
-0.030110 0.008534 0.044474
0.149302 -0.001583 0.031613
0.207373 -0.003914 0.105473
-0.017204 0.044725 -0.233536
-0.052718 0.004642 0.064582
-0.059183 -0.039162 0.038482
0.023714 0.006522 -0.296859
-0.031630 -0.035527 0.217329
0.034922 0.012989 0.077452
-0.024158 0.003949 -0.304796
0.105028 -0.004495 0.231439
-0.025848 -0.007190 -0.282550
0.067447 -0.018254 0.185286
0.002671 0.015213 -0.393980
-0.083975 -0.001752 0.029375
0.107624 -0.000586 -0.048916
-0.021788 0.026993 -0.102183
-0.053716 -0.038042 -0.034983
-0.045448 -0.041197 0.180882
0.224912 -0.003125 0.084308
-0.054777 -0.015585 0.220885
-0.087280 -0.005398 0.259421
0.108631 0.003433 0.005424
0.049300 0.016318 -0.048882
0.017825 -0.030318 -0.036824
0.013635 0.006332 0.236763
-0.265749 -0.004610 0.132540
0.021010 0.023752 -0.065296
0.031842 -0.010277 0.007019
-0.016627 -0.013140 -0.134386
-0.067351 0.011564 -0.041556
0.225758 -0.004134 0.114446
-0.178244 -0.001970 0.045679
-0.039953 0.015231 -0.200539
0.051563 -0.018251 0.164649
-0.096880 0.002072 0.046483
-0.019248 0.003165 0.226651
0.079005 0.001143 -0.009335
-0.151467 -0.002988 0.129756
0.057574 -0.005854 0.271007
0.096984 0.114209 0.269768
0.001329 -0.015940 0.018231
0.020042 0.024253 -0.304077
0.077953 0.007503 0.203316
0.016749 -0.005501 -0.014474
0.038014 -0.042409 0.101111
0.039289 -0.011356 -0.032185
-0.069264 0.011148 -0.009515
0.015250 0.037111 -0.116525
0.115232 -0.029466 0.070339
-0.045151 0.004440 -0.074461
0.019189 0.030524 -0.271277
0.053428 -0.009219 -0.103535
0.048008 -0.008904 -0.008220
0.093925 -0.003303 0.257086
-0.049218 -0.028717 0.223535
-0.052211 -0.046874 -0.069774
0.018737 -0.032475 0.056757
-0.037404 -0.004951 -0.244443
0.158934 -0.002505 0.059320
0.041510 -0.043638 0.107769
0.092465 0.074794 0.233249
0.060945 0.013771 -0.082526
-0.093448 -0.005436 0.232025
-0.124621 -0.005297 0.234157
-0.105801 -0.002463 -0.071214
-0.043517 -0.003072 -0.155533
-0.031096 -0.010454 -0.141577
0.169261 -0.002780 0.068014
0.077818 -0.001944 0.059769
-0.016474 0.045627 -0.207894
0.037412 -0.010074 0.000827
-0.000602 -0.021029 -0.323093
-0.050267 -0.009478 0.199737
-0.072176 0.010861 -0.071286
-0.061576 -0.002872 0.092329
-0.053837 -0.044908 -0.039633
-0.053814 0.008809 0.257517
0.000238 0.036307 0.012614
0.007312 -0.013948 -0.228414
0.194226 -0.003680 0.142952
0.015394 -0.018934 -0.389672
-0.095186 -0.003266 0.248378
0.022246 0.024359 -0.256489
0.027164 -0.043170 -0.138103
0.135590 0.002375 0.000944
-0.100452 0.000270 -0.024210
0.085753 -0.005225 0.220361
-0.003581 0.040933 -0.050655
0.063367 -0.005162 -0.104240
-0.031027 -0.050408 -0.036438
0.266273 -0.002103 0.100263
-0.017458 0.019134 0.078486
-0.042494 -0.010137 0.071996
-0.068598 0.004154 0.173955
0.005551 -0.015275 -0.213073
0.053952 -0.007322 -0.114682
-0.086662 0.047624 0.147679
-0.085322 0.036807 0.153140
-0.157317 -0.005111 0.307591
0.043723 -0.009516 0.023836
-0.116766 -0.004902 0.308325
-0.086103 0.024247 0.192002
0.129279 -0.029727 -0.041754
-0.158994 -0.004319 0.262756
0.166549 -0.002123 0.048944
0.001806 0.016092 0.173532
-0.030755 -0.010612 0.067832
-0.003700 -0.015689 -0.157145
-0.048051 -0.046082 0.037061
0.017164 0.006968 -0.397177
-0.008577 0.007846 0.232157
0.086539 0.061137 0.214935
0.014075 0.019937 0.085761
-0.044315 -0.044259 0.091528
-0.109303 -0.004787 0.309737
-0.024377 0.018415 0.021282
-0.063402 -0.003568 0.062649
-0.029364 -0.016182 0.143030
-0.052663 -0.010780 -0.025266
0.055499 -0.043679 0.011848
-0.011923 0.032700 0.001161
0.146855 -0.004046 0.135819
-0.011088 0.043346 -0.104199
-0.004700 0.035356 0.020499
0.015408 0.036054 -0.296748
0.134878 -0.003031 0.128268
0.017328 -0.030098 -0.092045
-0.125571 -0.022507 0.017487
0.025039 0.020991 -0.236757
-0.065558 -0.029767 0.097246
0.094780 0.109424 0.261910
-0.160450 -0.005368 0.286805
-0.142056 -0.005270 0.296855
-0.028993 0.020773 -0.048509
-0.037332 0.001441 -0.171074
-0.116552 -0.005087 0.299417
0.174505 0.001365 0.036213
-0.052635 -0.009312 -0.080650
-0.017925 -0.015378 0.164294
0.036609 -0.001342 0.009749
0.028085 0.020682 -0.106227
0.065373 -0.021782 0.242696
-0.067108 -0.020005 0.089442
0.044964 0.017770 -0.061228
0.053659 -0.011344 0.180196
0.018842 -0.005325 0.210709
-0.057022 0.009136 0.226809
0.040838 0.015446 0.017204
-0.183805 -0.002902 0.132727
0.020910 -0.031092 0.140442
-0.023144 -0.019213 -0.133080
-0.026839 -0.002152 -0.101692
-0.027949 0.009424 0.142216
0.019129 -0.034869 0.027833
0.176304 0.001513 0.024620
-0.162261 -0.017828 0.042528
0.016242 0.017776 0.093618
-0.050991 -0.033466 0.156933
0.243093 -0.004732 0.126999
-0.089972 0.001346 0.252578
-0.138428 0.001457 0.055685
-0.017860 -0.024702 -0.165164
-0.022873 -0.004718 -0.328781
0.000014 -0.020902 -0.433672
-0.021040 0.031520 -0.254455
0.093593 0.081836 0.246574
0.039396 -0.004225 -0.037621
0.066599 0.011965 -0.128625
0.067342 -0.019438 0.143970
-0.001196 0.061354 -0.214818
-0.094348 0.102342 0.237965
0.098467 0.127567 0.256710
-0.061392 -0.034500 0.130562
0.052528 -0.023891 -0.026489
0.215244 -0.003968 0.139609
0.036733 0.010931 0.111711
0.000378 -0.016068 0.089918
-0.049511 -0.023997 -0.067519
-0.042620 0.016229 -0.182015
0.146181 -0.005301 0.263968
0.028114 -0.044587 0.038975
0.117421 -0.002547 0.100923
0.086925 0.054620 0.157372
-0.019526 -0.040538 -0.124220
-0.020289 -0.012485 0.099405
0.201940 -0.002154 0.025988
0.033847 0.013953 -0.120081
-0.053331 -0.008205 -0.000046
-0.049771 0.015238 -0.061546
0.050390 -0.002861 0.163415
0.106411 -0.002879 0.067762
-0.145882 -0.004043 0.254817
0.003280 0.023243 -0.366953
0.050980 -0.015618 -0.038360
0.018957 -0.018325 -0.111518
0.187472 -0.004746 0.330125
-0.149102 -0.001809 0.037603
-0.003835 -0.017206 0.218419
-0.271359 -0.002443 0.095107
0.010804 -0.014218 -0.266102
-0.145983 -0.004956 0.319731
-0.142629 0.000555 0.081175
0.023179 0.006062 -0.331726
-0.002404 0.033873 0.040757
-0.058385 0.007922 0.166979
0.022521 -0.012564 0.181105
-0.136577 0.003141 0.011261
-0.013610 -0.012328 0.219831
0.034614 -0.002815 -0.267780
0.194500 -0.023227 0.086981
0.009832 -0.015608 -0.282250
0.228271 -0.004551 0.151638
-0.086873 0.005787 -0.034953
-0.003000 -0.015432 -0.199768
0.096250 -0.003305 0.139246
-0.053850 0.003544 0.139053
-0.065745 -0.005576 0.002619
-0.005733 -0.015427 -0.071845
-0.053686 -0.003735 -0.088077
-0.025003 -0.010059 -0.262126
-0.092292 0.092025 0.224997
-0.018282 -0.032295 -0.136746
0.182322 -0.001515 0.109180
0.107107 -0.004270 0.269598
0.044666 -0.010315 0.118531
0.083281 0.036172 0.143115
-0.063413 -0.021348 0.057713
0.034484 -0.017483 0.133218
0.043577 0.003613 -0.136922
0.119388 -0.017139 -0.014985
-0.037785 -0.047095 0.020044
0.056763 -0.038105 0.149819
0.070296 0.010635 -0.085272
0.005184 0.037992 -0.033532
-0.050207 0.012264 0.185908
-0.010105 0.023064 0.093762
-0.054015 0.002022 0.037532
-0.036921 0.012463 0.205592
-0.232286 -0.002967 0.137510
0.032264 0.017376 -0.132375
-0.041567 -0.041203 0.129884
-0.045518 0.015204 -0.189828
0.072294 -0.002137 0.189852
0.014633 -0.010061 -0.071188
-0.042214 -0.009869 0.168534
0.049041 0.017258 -0.041814
0.130135 -0.003853 0.144464
-0.120513 -0.023295 -0.073619
0.003751 0.012708 0.194586
0.062526 0.013063 -0.052371
0.032588 0.020441 -0.073392
0.022778 -0.053273 -0.099126
0.031854 -0.051910 -0.088146
0.087544 0.049600 0.275282
0.049946 0.004161 -0.217256
-0.048288 -0.005223 -0.213157
0.192956 0.000536 0.053031
-0.021254 0.003767 0.131565
-0.124551 -0.027504 -0.082500
0.105692 -0.003443 -0.033838
0.000105 0.061927 -0.269949
-0.022293 -0.051017 -0.020947
-0.042425 -0.038295 0.233325
-0.012948 0.037989 -0.059607
-0.051111 -0.037524 -0.096222
0.049215 -0.029513 -0.100506
-0.008619 0.062408 -0.233799
-0.011617 0.051585 -0.190733
0.005723 0.034324 0.022839
0.053081 -0.018731 -0.019482
-0.047175 -0.003698 -0.096436
0.032969 -0.005407 0.167510
-0.134790 0.003032 -0.009344
-0.151074 -0.004152 0.275740
0.081758 0.027854 0.150996
-0.147182 -0.004774 0.241779
0.001014 -0.015971 -0.020968
0.026159 0.007764 -0.071034
0.043160 -0.050868 -0.107164
0.047009 -0.001902 -0.003384
0.145119 -0.000167 0.044601
-0.007457 0.011873 -0.404762
0.205195 -0.002635 0.067730
-0.064622 -0.000652 -0.164133
-0.101638 -0.003302 0.258960
0.036840 -0.011278 0.026507
-0.049705 0.010717 0.070973
-0.019813 -0.006168 0.105073
0.087242 0.039869 0.250054
-0.160121 0.000436 -0.001159
-0.034311 0.017473 -0.149640
0.019047 -0.026498 0.156990
0.181059 0.001543 0.029818
0.207541 -0.003616 0.113035
0.081466 0.006675 0.005246
0.026425 -0.010350 -0.212756
0.270184 -0.004870 0.139731
-0.033349 0.002442 0.006826
-0.082786 0.027694 0.145395
-0.124156 -0.019137 0.054827
-0.190667 -0.011927 0.046688
-0.037373 -0.035548 0.258316
0.053964 -0.016496 0.100972
0.143124 -0.004777 0.326552
-0.046546 -0.004984 -0.029529
0.004333 -0.011956 -0.041166
-0.008678 -0.018661 -0.307603
-0.170477 -0.004833 0.273986
0.039839 0.003413 -0.070728
0.083475 0.002357 0.028483
-0.042855 0.006968 0.047392
-0.135050 -0.005340 0.270044
0.052719 -0.005192 -0.053281
0.113093 -0.028823 0.030255
-0.024249 0.008148 -0.297576
-0.049238 -0.020481 -0.125335
0.056446 -0.016442 0.010227
0.090753 -0.004806 0.292976
-0.106655 -0.007340 -0.080495
0.074299 0.000150 0.204785
0.034733 0.000521 0.128851
-0.018470 -0.003138 -0.063350
0.123222 -0.017043 -0.085652
-0.019233 0.009643 -0.385417
-0.025274 0.017600 -0.129733
0.042972 0.008168 0.097556
0.035713 -0.037542 0.231678
0.017846 -0.035007 -0.064287
-0.012135 0.050522 -0.284623
-0.066023 0.002779 0.135005
0.017920 0.007309 0.133189
0.081650 -0.005106 0.287726
0.049145 -0.031070 -0.157554
0.096863 0.121544 0.247570
-0.016188 0.038363 -0.116153
-0.045287 -0.003289 -0.232748
-0.015701 -0.017431 -0.348687
0.020712 0.029934 -0.208999
0.063869 0.001424 -0.168383
0.051463 -0.008619 0.095635
-0.004548 -0.015683 -0.025396
-0.038936 -0.011505 -0.081286
0.090946 0.064677 0.226866
-0.051167 -0.002272 0.199601
-0.273298 -0.004934 0.150118
0.093762 0.099074 0.270424
-0.109165 -0.003906 0.129206
-0.018970 -0.035924 -0.074308
-0.085962 0.030076 0.253951
0.208974 -0.000618 0.038785
0.194394 -0.008959 0.026339
-0.075075 0.008178 -0.125961
0.013150 -0.008836 0.208640
0.196544 -0.004382 0.019082
-0.017541 0.043805 -0.214862
-0.234612 -0.000318 0.078899
-0.018335 -0.032266 -0.103660
-0.175262 0.000420 0.031949
-0.120171 -0.008816 0.045539
0.066861 -0.002649 -0.132623
0.017370 0.038597 -0.204754
-0.018129 -0.011958 -0.298711
-0.161587 -0.002456 0.087315
-0.079768 0.003874 -0.038473
-0.194505 -0.010131 0.100377
0.044556 -0.014215 -0.058907
-0.094898 0.086000 0.259476
-0.005706 0.013595 0.186473
-0.003437 -0.015423 0.191032
-0.006455 -0.015904 -0.246411
-0.208313 -0.001456 0.093763
0.082878 -0.001159 0.011419
0.007459 -0.015320 0.199841
-0.069588 -0.010979 0.201499
0.106421 -0.003325 0.253347
0.032859 -0.005221 -0.106666
-0.074911 -0.006088 -0.021889
-0.078248 0.000784 0.210362
0.057659 -0.008637 0.104127
0.019225 -0.039930 -0.141702
-0.052316 -0.039960 0.161259
0.012079 0.047691 -0.179973
0.077626 0.007638 -0.070227
0.076293 -0.002979 0.047257
0.018480 -0.025227 0.144633
0.081205 0.017398 0.223583
-0.110737 -0.003322 0.235574
0.031734 -0.010406 0.034698
0.028495 -0.002109 -0.063738
0.052419 -0.032665 0.132214
0.007338 0.030376 0.052858
0.165111 -0.027990 0.076470
-0.044781 0.006391 -0.105372
-0.088257 0.036743 0.231810
-0.044233 0.008482 0.005432
0.034560 -0.046622 0.031092
0.019649 -0.044142 -0.012896
-0.085653 0.029811 0.272361
0.042784 -0.015768 0.202482
-0.084597 0.045701 0.189215
-0.054585 -0.031834 -0.021867
-0.018368 -0.008422 0.242030
0.017419 -0.014748 -0.338325
-0.119246 -0.006252 -0.022919
-0.124125 -0.031686 -0.034849
-0.185107 -0.004444 0.331860
0.071469 0.005947 -0.134706
0.011351 0.043581 -0.122018
0.028271 0.019004 -0.206138
0.107391 -0.004176 0.205003
0.011365 -0.018417 -0.326776
0.019953 -0.050721 -0.044793
-0.062677 -0.013477 0.048247
-0.089132 0.065498 0.178816
0.019303 -0.034548 0.041295
0.043676 0.010233 0.119659
-0.225100 -0.003741 0.102101
-0.024713 -0.031759 0.207504
-0.009579 -0.014439 -0.106830
0.006321 0.023912 0.089904
0.079652 0.017838 0.209930
-0.076301 0.010456 -0.026796
-0.125258 0.002818 0.019342
0.030421 0.017888 -0.037994
-0.003300 0.021931 0.132690
-0.082414 0.023996 0.138751
0.075635 -0.005726 0.133263
0.041255 -0.042010 0.152480
-0.050903 -0.009353 0.082560
0.048549 -0.039471 0.189184
-0.039315 0.003805 0.018047
-0.116697 -0.004119 0.118185
0.190951 -0.001432 0.065854
-0.059839 -0.006942 -0.027277
-0.000651 -0.015425 0.131984
0.055820 -0.039434 0.121011
0.001913 0.052465 -0.153608
0.051713 -0.032499 -0.047210
-0.149873 -0.000909 0.105673
0.099014 0.002305 -0.030430
-0.253174 -0.002328 0.086580
-0.014449 -0.011405 -0.073973
0.026458 -0.005342 0.020706
0.122846 0.002702 0.022725
-0.002459 -0.018862 -0.289231
-0.030402 0.009648 0.228347
-0.104075 -0.005402 0.225017
-0.078778 0.010758 0.013149
0.086438 0.058524 0.207581
-0.033955 0.011452 0.235216
-0.060717 -0.031801 0.037323
0.198715 0.000602 0.046415
0.153578 -0.021515 0.026890
0.036788 -0.019714 -0.014918
-0.120720 -0.005371 0.259938
0.033573 -0.010383 -0.028156
0.194009 -0.002913 0.074493
-0.070337 0.001124 0.181606
0.049789 0.005215 0.059949
-0.033089 -0.043053 0.075397
0.028587 -0.010530 -0.144604
0.219697 0.000161 0.069175
-0.129263 -0.014554 0.065817
-0.060857 -0.017529 0.020534
-0.056504 0.010637 0.058917
0.035816 -0.051727 -0.082123
-0.048961 -0.036479 0.212885
0.029384 0.010839 0.122340
-0.182411 -0.003526 0.091979
0.051039 -0.009305 0.087816
-0.158843 -0.026676 0.077708
-0.027304 0.004549 0.159053
-0.094460 0.102771 0.230109
-0.084976 0.009306 0.058334
-0.001979 -0.015039 -0.036682
0.041903 -0.023258 -0.063728
-0.009033 -0.013530 -0.165549
-0.124292 0.003427 -0.016220
0.113631 -0.021297 0.027276
-0.018498 -0.011830 -0.225361
0.236853 -0.003969 0.109175
-0.177073 -0.004625 0.342219
-0.090501 0.057614 0.259872
-0.050562 0.008726 0.040769
0.051559 -0.044746 -0.055955
0.018635 -0.012397 0.099838
0.066591 0.011135 -0.029438
0.119444 -0.007290 -0.030128
-0.015849 -0.012495 0.010863
0.070128 -0.012375 0.162295
0.036635 0.015439 -0.086688
-0.076419 -0.006011 0.232094
0.094352 -0.003115 0.264892
0.064615 -0.003659 0.097501
0.023828 -0.008595 0.199758
-0.052108 -0.036953 0.193140
-0.029424 -0.033407 0.243404
0.020711 -0.040395 0.045565
0.066617 -0.002931 0.023323
-0.008335 -0.013973 0.021507
0.160308 -0.016841 0.073834
-0.015676 0.043105 -0.159988
-0.045310 -0.002951 0.129599
0.058988 -0.030987 0.250309
0.092955 -0.005429 0.217651
0.063007 -0.028241 0.066733
0.024274 -0.038058 0.086547
-0.026839 -0.008518 -0.173493
0.036387 -0.010177 -0.040853
-0.221077 -0.002957 0.079268
0.039365 -0.019909 0.220863
-0.191809 -0.015498 0.019875
0.123834 -0.014929 -0.063644
-0.153790 -0.007673 0.056251
-0.024047 0.010061 -0.310868
0.107311 -0.009033 0.072449
0.023415 -0.044592 0.020028
0.037147 0.008158 -0.235592
-0.065634 0.007010 0.085293
0.048498 -0.023304 -0.137682
-0.022737 0.030853 -0.211934
0.200415 -0.001555 0.100782
0.024194 -0.009922 -0.278645
0.013234 -0.015574 0.004815
-0.033983 -0.008338 0.109001
0.042491 -0.016587 0.181094
-0.111694 -0.031161 -0.041470
-0.101024 -0.005315 0.207830
0.016607 -0.018160 -0.022769
-0.036449 0.012025 0.161479
-0.066296 -0.020983 0.246818
-0.079379 0.009332 0.145522
0.019139 -0.023053 -0.149419
-0.065822 -0.015819 0.077535
0.122645 -0.005169 0.020574
-0.024496 0.022875 -0.164062
-0.223548 -0.002022 0.126261
-0.035513 -0.035765 0.246619
-0.084461 0.048601 0.195626
0.143311 -0.003738 0.305116
0.044323 -0.034175 0.100056
0.204974 -0.002505 0.130875
0.176704 -0.003817 0.316557
0.127296 -0.023613 -0.014094
-0.092005 0.073186 0.277666
0.145331 -0.027889 0.055786
-0.020721 -0.034191 0.075515
-0.024318 -0.007477 0.148551
-0.031780 0.022483 -0.079398
0.169643 -0.003870 0.327507
0.017832 0.035429 -0.283118
-0.060917 -0.004754 -0.138279
-0.013807 0.015462 0.140490
-0.030087 -0.010830 0.082860
0.014262 0.031914 -0.331264
-0.075073 -0.002801 0.140928
-0.097442 0.110380 0.276426
-0.083871 0.017988 0.265463
-0.049958 -0.047480 0.002972
-0.057150 -0.005176 0.165935
-0.051579 -0.043762 0.079311
0.021898 0.004222 0.126035
0.091667 -0.001474 0.069845
0.056663 -0.039728 0.108488
-0.020324 -0.004567 -0.125865
0.186897 -0.004391 0.134426
-0.020732 -0.013334 0.050452
-0.066748 -0.007854 -0.030327
0.018323 0.037702 -0.218940
-0.204640 0.000666 0.052444
0.061446 0.005456 0.096777
0.087494 0.045340 0.262481
-0.020686 -0.031313 0.096725
-0.067242 -0.009704 0.149501
-0.161661 -0.025734 0.060295
-0.019777 -0.031296 0.055903
0.109018 0.001310 0.051801
-0.009056 0.017902 0.145611
0.044668 -0.009414 0.037402
-0.035395 -0.048954 -0.010084
-0.073892 -0.002405 -0.041011
0.079751 -0.006473 0.156358
-0.094489 0.098883 0.258280
-0.020200 0.031585 -0.155333
0.085533 0.035673 0.273424
0.035404 -0.006611 0.095346
0.008501 -0.012515 -0.172591
-0.069577 -0.001603 0.113693
-0.064948 0.008402 0.067791
0.043622 -0.046996 0.026180
-0.104128 -0.004716 0.194276
-0.087057 0.035416 0.278240
-0.072443 0.010022 -0.111367
-0.066915 -0.022150 0.232789
-0.202811 -0.001390 0.114507
0.162491 -0.027858 -0.011057
0.077140 0.001115 0.243286
0.122750 -0.020888 -0.028781
0.044856 0.017850 -0.116331
0.064566 -0.007600 0.089819
-0.118988 -0.004056 0.218648
0.070044 -0.006489 0.116173
0.083013 0.025845 0.259915
0.046813 0.018084 -0.096893
0.026807 0.004509 -0.275402
0.187755 0.000668 0.026576
-0.039616 0.017459 -0.024309
-0.023481 -0.007215 -0.159066
0.049280 -0.030345 -0.093002
0.142850 -0.004307 0.252624
-0.001408 -0.014794 0.044865
0.081104 0.023087 0.113132
0.122210 -0.032031 -0.037073
0.028660 -0.039783 0.110785
-0.056700 -0.002849 -0.190666
0.239180 -0.003979 0.140911
-0.017766 0.024379 -0.326868
-0.023169 0.021786 -0.282817
-0.010812 -0.022443 -0.386498
0.066353 -0.012390 0.098646
-0.049691 -0.005541 -0.184160
0.163768 -0.001356 0.074011
-0.040780 -0.046500 0.047516
-0.092381 -0.002585 0.109700
0.091603 0.091820 0.231553
0.039787 0.013058 0.206308
0.084387 -0.004785 0.298656
-0.035892 -0.048824 -0.063743
-0.020270 -0.016576 -0.115324
-0.123746 -0.012937 0.050520
0.078548 0.014268 0.039887
-0.221237 -0.004589 0.155041
-0.186079 -0.016431 0.000384
0.065376 -0.006250 0.033481
-0.091775 -0.003881 0.177469
0.067041 -0.012408 0.254260
-0.032239 0.018747 -0.189030
0.045910 0.012926 0.156333
0.053030 -0.011240 0.187332
0.127997 -0.017497 0.051111
-0.044226 -0.039236 -0.128222
-0.059212 -0.010275 0.173835
-0.039060 -0.022602 -0.047389
0.034857 0.015499 -0.206040
-0.005781 -0.015032 -0.229688
-0.087288 0.029987 0.229063
-0.055460 0.016181 -0.101515
0.033776 0.010591 0.248392
-0.023443 -0.026059 0.255204
-0.083748 0.036627 0.172631
-0.055078 0.006672 0.103342
0.027795 0.008817 0.234630
0.018894 -0.034676 0.012561
-0.168287 -0.003297 0.083354
-0.125549 -0.023300 -0.010542
0.007339 -0.014703 -0.132856
0.068238 0.009244 -0.053202
0.014721 0.032257 -0.038655
-0.125836 -0.030571 0.035925
-0.006062 -0.003312 0.254262
-0.031178 -0.037963 0.197142
-0.040295 -0.014268 0.103912
-0.051670 0.011223 0.245008
-0.040287 0.011730 0.128672
0.082127 0.024908 0.164845
0.078055 -0.003551 0.094557
-0.065361 0.012345 -0.123298
0.030460 -0.036347 0.211930
-0.073868 -0.008498 0.107895
0.022787 0.003109 0.244621
-0.095997 -0.001892 0.034064
0.014992 -0.018165 -0.407642
0.159845 -0.022150 -0.038257
0.085406 0.039877 0.155550
0.080447 0.013628 0.246352
0.044305 -0.005339 -0.105573
-0.066073 -0.028528 0.130479
0.018222 -0.011112 -0.258307
0.016586 -0.022535 0.003117
0.017538 -0.026754 -0.106275
0.039787 -0.007553 -0.206565
-0.173434 -0.001843 0.118464
0.079393 0.011720 0.018810
0.017366 0.025967 -0.021112
-0.011728 0.041379 -0.090693
0.016350 -0.017502 0.073381
-0.084831 0.036438 0.135210
0.085793 0.002878 0.050025
-0.018705 -0.032714 -0.151610
-0.018812 -0.028495 0.081869
0.003780 0.031910 -0.339984
-0.015897 0.048736 -0.220221
-0.027104 0.021229 -0.090103
0.194864 -0.000537 0.106902
-0.083304 0.016388 0.223784
-0.008755 0.013723 0.180017
-0.118417 -0.005089 -0.053575
-0.016265 -0.013496 0.092571
0.020267 -0.001436 0.186676
0.036900 -0.048228 0.006586
-0.020012 -0.044354 -0.114171
0.064560 -0.005683 0.195064
-0.019326 -0.037887 -0.020825
0.019222 -0.016471 0.034517
0.085599 0.034552 0.257159
0.017062 0.036854 -0.171584
0.181842 -0.002645 0.065364
-0.105154 -0.004584 0.231736
0.039318 0.010958 0.191904
-0.031616 -0.017558 0.101842
-0.033012 -0.052894 -0.023244
0.016807 -0.025514 -0.113550
0.016713 -0.024377 -0.029021
-0.066947 0.001124 0.204241
-0.049811 -0.026317 -0.139790
-0.028518 0.008476 0.205000
-0.024937 -0.027460 0.102625
0.089082 0.053942 0.263109
0.158105 0.000721 0.080077
0.046456 0.000444 0.157095
-0.029409 -0.010424 0.051097
0.001643 -0.022500 -0.340412
-0.016431 0.022689 -0.341173
-0.019152 -0.032169 0.031743
-0.002398 -0.015895 -0.058470
0.036770 -0.005660 -0.254319
0.123904 0.003185 0.008459
-0.018198 -0.045469 -0.018807
0.009106 0.019367 0.134308
0.043486 -0.052000 -0.065850
0.050426 -0.003680 -0.198916
0.046832 -0.035972 0.255264
0.008202 -0.016017 0.011887
0.020216 0.032308 -0.246641
-0.015083 0.030937 -0.310290
-0.151418 -0.000638 0.098889
0.110991 -0.030930 0.047659
0.052330 0.001979 0.181141
-0.050086 -0.031085 -0.154065
-0.021756 -0.047662 -0.012679
-0.237854 -0.002110 0.127739
-0.017134 0.008442 0.189391
0.170665 -0.003622 0.303035
0.023405 0.003653 -0.324747
-0.031958 -0.009097 -0.225694
0.078885 0.014186 -0.012423
-0.027874 -0.008521 -0.268362
-0.028305 -0.023363 -0.063755
0.046276 -0.008955 -0.077555
0.013121 -0.013018 0.127941
0.005961 0.048133 -0.126317
0.096900 0.121970 0.239834
0.004254 0.038270 -0.022053
0.082635 -0.003578 0.131827
-0.046738 -0.009619 0.055134
-0.017775 -0.022553 0.005952
-0.010332 -0.013564 -0.202150
-0.057749 -0.013631 0.150117
0.012965 0.045435 -0.288310
0.065480 -0.005879 0.056567
0.033266 -0.051961 -0.053696
0.165144 -0.003731 0.315640
-0.029333 0.009049 0.191592
-0.019803 -0.042524 -0.135200
-0.077726 -0.001021 -0.068577
-0.019111 -0.011514 -0.324135
-0.011772 -0.020965 -0.129811
-0.030892 -0.004415 -0.050783
0.058828 -0.027302 0.269428
0.110177 -0.031738 -0.041137
-0.043697 0.014076 0.021058
0.074033 -0.009147 0.260125
-0.080239 0.005173 -0.045422
0.251625 -0.003449 0.148269
0.079333 0.013563 0.031672
0.024225 0.017791 -0.268076
0.047426 -0.014435 0.192421
-0.209418 0.000428 0.058185
0.083596 0.020901 0.273534
0.057353 -0.007774 -0.048903
0.046299 -0.008402 -0.168704
0.020474 0.031658 -0.216618
0.131201 0.000864 0.070680
0.095394 -0.005014 0.191619
-0.236822 -0.004424 0.155758
-0.020361 -0.045152 -0.040207
0.190774 -0.022208 0.000839
0.060764 -0.033198 0.184400
-0.138437 -0.002306 0.120136
-0.027714 -0.004223 -0.127909
-0.039863 -0.040487 0.176969
0.119842 -0.021009 -0.098133
-0.021205 -0.003962 0.075612
-0.099289 0.128919 0.246209
-0.116063 -0.029016 0.069522
-0.072690 -0.003242 -0.074692
-0.125743 -0.003186 0.141134
-0.051415 -0.040124 -0.111449
0.016029 0.037078 -0.124068
0.008280 -0.020864 -0.429264
0.001508 -0.024387 -0.381183
-0.168999 -0.004992 0.331670
-0.194999 -0.022770 0.060112
-0.069292 -0.003244 -0.114705
-0.003224 0.038306 -0.020642
0.127384 -0.004224 0.298112
0.031695 0.017769 -0.007573
0.047220 -0.005830 0.184295
0.015471 0.047464 -0.268465
-0.011158 -0.018174 -0.176005
0.055178 0.013965 -0.122349
0.055442 -0.019254 0.000480
0.186332 -0.002848 0.117278
0.097800 0.122346 0.261036
0.100267 -0.003641 0.019998
-0.018036 -0.009815 0.034772
-0.052544 -0.044004 0.058126
0.121438 -0.005376 0.247556
0.135588 -0.002639 0.114432
0.226344 -0.003695 0.101691
0.083019 0.009596 0.075387
-0.038113 -0.006482 -0.166017
-0.021185 0.027373 -0.279252
-0.027634 -0.017010 0.035537
0.078571 0.010268 0.219963
0.011302 -0.020370 -0.350080
-0.055425 0.012247 0.002617
0.038013 -0.013598 0.185472
-0.032034 0.016205 0.032110
-0.096705 0.111879 0.268640
-0.017527 -0.023379 -0.055777
0.127896 -0.002490 0.103504
-0.014055 0.037653 -0.077171
0.007341 0.016432 0.161308
-0.078900 0.006073 -0.014037
-0.018670 0.019095 0.067879
0.175692 -0.002224 0.111243
0.022283 0.001914 0.208452
0.059487 0.005676 0.264164
-0.048619 -0.011232 0.021041
-0.013633 0.042379 -0.123607
0.004913 -0.015469 -0.034109
-0.053353 0.005779 0.090116
-0.049189 -0.042586 -0.137424
-0.023627 0.008561 -0.350240
-0.058456 -0.036121 0.024091
0.012978 0.038519 -0.084949
-0.042448 -0.037249 0.246980
-0.087179 0.007271 0.051036
-0.043624 -0.047199 0.024531
0.184064 -0.000195 0.042927
-0.004925 -0.010203 -0.120605
-0.083810 0.029013 0.173056
-0.051804 -0.037193 -0.055831
-0.038434 -0.050398 -0.039138
0.040967 -0.009928 0.072594
-0.025985 -0.044242 0.030805
0.020329 0.004083 0.231959
-0.023550 0.010149 0.131957
-0.062288 -0.010624 0.203017
0.110194 -0.026723 -0.034805
0.055268 -0.010624 0.173347
0.015547 -0.015096 -0.096856
0.046946 0.008192 0.144694
0.073862 -0.002962 -0.110500
0.065583 -0.020712 0.085356
-0.055175 -0.008377 0.065744
-0.013166 -0.013583 -0.188686
0.085381 0.025437 0.241696
-0.080316 -0.002356 0.102623
0.016875 -0.015620 -0.351503
-0.086681 -0.004579 0.206085
0.062228 -0.008527 0.109586
-0.243787 -0.002313 0.111025
0.062604 -0.004785 0.010054
0.058194 -0.037164 0.115072
0.108788 0.003982 -0.021082
-0.018503 0.027328 -0.045112
-0.139257 -0.004165 0.264581
0.073837 -0.003255 0.029212
-0.153468 -0.027015 0.072456
0.016892 0.028474 -0.050090
0.012550 0.035684 -0.309436
0.102872 -0.003878 0.080581
-0.036947 -0.038205 0.220571
0.096074 0.112808 0.220660
0.091586 0.000387 -0.021383
-0.015638 0.046772 -0.201269
0.157324 -0.014048 0.088754
-0.080386 0.014001 0.110303
-0.044781 -0.011293 -0.023430
0.030842 0.002362 -0.270404
0.066568 0.001128 0.144539
0.051207 -0.000092 -0.182972
0.023264 -0.002173 -0.050892
-0.087129 0.029465 0.221427
-0.023187 -0.002430 -0.319980
-0.024429 0.006015 -0.343646
-0.107518 -0.004895 0.255031
0.017091 -0.023242 0.111568
-0.012778 -0.021057 -0.393033
-0.189149 -0.024255 0.049192
-0.069198 -0.005322 -0.014494
0.023552 0.008018 -0.306251
0.128508 -0.032092 0.051874
0.134598 -0.003464 0.252077
0.041690 -0.049052 -0.015264
0.111477 -0.023611 0.047252
0.015064 0.045963 -0.204028
0.016291 -0.020870 -0.142474
0.166855 -0.004925 0.279246
0.046329 0.001394 -0.231986
-0.052287 -0.002147 -0.208654
-0.046792 -0.029066 0.215407
-0.180963 -0.021247 0.060723
-0.119244 -0.010097 0.020081
-0.043807 -0.013811 -0.036777
-0.032573 0.008936 0.255717
0.010846 -0.007572 0.219538
-0.085440 0.017378 0.216777
0.017678 -0.037408 -0.127249
-0.114852 -0.003616 0.286028
-0.098663 0.123445 0.264142
0.062510 -0.031704 0.079094
0.024348 -0.031178 0.235617
0.074551 0.007547 -0.113300
-0.038616 -0.011869 0.195225
0.111867 -0.004014 0.298725
-0.080366 0.016247 0.149932
-0.080409 0.012653 0.038399
0.009554 0.037479 -0.321862
-0.082723 0.005492 0.253022
-0.186435 -0.027056 0.086519
-0.065213 0.006325 -0.167297
0.059089 -0.002463 0.141992
0.020644 -0.002620 0.114369
0.033816 0.013245 -0.140582
-0.039394 -0.011379 0.030095
-0.053312 0.013502 0.009631
-0.257667 -0.002026 0.107930
0.026982 -0.010406 -0.198334
-0.028795 0.002802 -0.063256
0.036488 -0.037534 0.224077
-0.051980 0.002583 0.023545
-0.113301 -0.004643 0.206157
0.017439 0.032198 -0.112454
0.052315 0.001103 0.018066
0.089491 0.061845 0.274410
0.018841 0.020445 0.015916
0.248613 -0.002356 0.079329
0.151136 -0.019277 0.064381
-0.093046 0.081218 0.202052
-0.024082 0.025393 -0.250959
0.105395 -0.003946 0.128526
0.038360 0.000654 -0.118948
0.070881 -0.003943 0.008572
-0.128897 -0.005196 0.296837
-0.099988 0.003487 -0.058841
0.015412 0.039044 -0.132923
-0.067986 -0.020977 0.179697
-0.042483 0.014400 0.045740
-0.092333 -0.004887 0.184277
-0.065894 0.009956 0.026766
-0.021013 -0.001148 -0.401968
0.035282 0.016798 0.027927
-0.116764 -0.019258 0.040083
0.017159 0.031154 -0.098480
-0.064801 -0.003726 -0.131227
-0.098329 0.119204 0.269800
0.079454 0.017335 0.191922
-0.017476 -0.022119 -0.017466
-0.091401 0.071753 0.231531
0.015771 -0.003328 -0.083137
-0.026118 -0.031800 0.230262
-0.017158 -0.012774 0.105605
-0.094088 0.004387 -0.045406
0.016069 -0.010586 -0.109001
0.022636 0.013449 -0.319899
-0.017938 0.040131 -0.189719
-0.089094 0.053003 0.276293
0.035987 0.005430 0.053627
-0.060880 0.002907 0.260288
-0.056923 -0.004834 0.103155
-0.148461 -0.004370 0.283869
0.086133 0.039173 0.196124
0.079125 0.004952 -0.026080
-0.023101 0.023727 -0.117922
-0.063859 0.010103 0.039087
0.003747 -0.023602 -0.368067
-0.017595 -0.024034 -0.090076
-0.016443 -0.014955 0.239476
0.032971 -0.049795 -0.118810
-0.032119 -0.038382 0.182725
0.018627 -0.007230 0.094051
0.061135 -0.030165 0.050866
-0.174635 -0.005228 0.296041
0.045216 0.007597 0.085347
-0.080894 0.014095 0.097470
0.240406 -0.001763 0.077006
-0.053315 0.012024 0.052859
-0.086954 0.058064 0.204966
0.026167 -0.032336 0.221556
-0.079248 0.010094 0.104435
-0.048309 -0.003801 -0.060192
0.055902 -0.018350 0.186965
0.071918 -0.008626 0.271421
0.116295 -0.004557 0.278984
0.015014 0.022534 -0.348393
-0.036890 -0.038953 0.206298
-0.123794 -0.024425 -0.004160
0.055977 -0.009798 0.143260
-0.082254 -0.002271 0.252088
0.030691 -0.039427 0.154725
-0.055166 -0.005655 0.220211
-0.034156 -0.008982 -0.175349
0.018620 -0.003135 0.250869
-0.008547 0.035903 -0.005437
-0.182232 -0.001473 0.085128
0.155404 -0.008705 -0.016879
-0.022666 0.017486 -0.324885
-0.013170 -0.012323 -0.024369
-0.024249 -0.053200 -0.069095
0.027872 0.007447 -0.260948
0.063147 0.010759 0.003943
0.041082 -0.052080 -0.077375
-0.068315 -0.016333 0.237054
-0.114757 0.003005 -0.034272
-0.000802 0.047497 -0.110006
0.050173 -0.043650 0.070600
0.048384 -0.002607 0.057194
0.033785 0.006607 0.135569
0.061614 -0.016582 0.051664
-0.158206 -0.003560 0.131113
-0.019024 -0.012944 -0.278914
-0.159959 -0.009630 0.009614
0.049509 -0.031822 -0.123895
-0.032285 0.003956 0.050208
-0.019366 -0.006697 0.192224
0.014557 -0.016624 -0.089351
0.035282 0.012262 -0.217280
-0.095822 -0.002453 0.133848
0.143121 -0.030561 0.069430
-0.032475 0.009816 0.118369
0.031746 -0.008612 -0.126775
0.020913 0.023834 -0.088987
-0.083574 0.001718 0.117256
0.089053 0.052316 0.251418
0.003583 -0.015571 -0.110762
-0.165814 -0.004213 0.144368
-0.038679 -0.042613 0.118348
-0.093885 0.081695 0.271686
-0.008160 0.063335 -0.241595
-0.009626 0.010252 0.205766
-0.011686 -0.014043 0.098484
0.036571 -0.002602 -0.055712
-0.119283 -0.023117 0.020818
-0.004959 -0.015893 0.211163
0.055254 0.007287 0.258515
0.024643 -0.005787 0.167485
0.089148 -0.002741 0.087640
-0.016906 0.046834 -0.248086
-0.054518 0.012829 -0.167867
-0.063956 -0.001148 0.176337
0.032223 0.011387 0.045554
-0.028064 -0.052416 -0.052588
-0.023079 -0.002579 -0.086280
0.042292 -0.008220 -0.063750
-0.051541 -0.010574 0.148349
-0.022974 0.006774 -0.372376
-0.049518 -0.016852 -0.100196
-0.173519 -0.004161 0.324629
-0.098231 0.123515 0.251185
0.077874 0.009064 0.087056
-0.160203 -0.005266 0.300578
-0.207300 -0.000635 0.039297
-0.012218 0.042410 -0.295907
-0.012945 -0.010522 -0.099823
-0.019798 0.010958 -0.378131
-0.101989 -0.003746 0.116463
0.117022 -0.004493 0.209482
0.109600 -0.003355 0.224567
-0.005179 -0.009564 -0.448112
0.027788 0.016968 0.024717
0.006759 -0.014821 -0.008090
-0.020204 -0.039630 -0.149478
0.008793 0.009932 0.208375
-0.086719 0.027635 0.210974
0.056885 -0.002030 -0.002062
0.049977 -0.043568 -0.103261
-0.027811 -0.000060 -0.045227
-0.032993 -0.002517 -0.267493
-0.019637 -0.041448 -0.086008
-0.000222 -0.016117 -0.097657
-0.091487 0.064529 0.263918
-0.020752 -0.009493 -0.043513
-0.268000 -0.002195 0.111329
0.030143 0.005992 0.199722
-0.186624 -0.026878 0.073700
0.041373 -0.029591 0.272490
-0.048162 -0.011526 -0.159058
-0.015435 -0.010186 -0.114615
-0.007279 0.040600 -0.056671
0.039286 -0.015726 -0.047596
0.157404 -0.024170 -0.014607
0.006308 0.032600 0.039040
-0.005783 -0.015350 -0.187871
0.028367 -0.011286 0.012620
0.005614 -0.014536 -0.206311
0.087409 0.037444 0.237882
0.100284 -0.005158 0.244164
-0.096816 -0.004785 0.303226
-0.243009 -0.001291 0.068355
0.023067 -0.009822 -0.184204
-0.040833 -0.046127 0.040762
0.092411 0.087871 0.216280
-0.023767 0.003624 0.240672
-0.184761 -0.004515 0.312281
0.082348 0.019793 0.159522
-0.113313 -0.028928 0.030586
-0.015037 -0.015163 -0.285525
0.023004 -0.000391 0.051477
-0.043137 0.003604 0.176800
-0.052106 0.009348 0.084408
0.021699 -0.010744 0.052509
-0.059568 -0.036916 0.136651
-0.008554 0.050931 -0.151840
-0.089454 0.066973 0.202828
-0.039420 0.007073 -0.239382
0.004358 -0.023369 -0.407259
0.016419 -0.019495 -0.014449
-0.048515 0.000465 0.097393
0.021985 -0.003108 0.224461
0.071830 -0.011969 0.154070
0.002657 0.001081 0.237365
-0.081025 0.004330 -0.054597
-0.173678 -0.004378 0.312006
-0.058470 0.015785 -0.090984
-0.030743 -0.044287 0.057693
-0.159836 -0.026063 0.038897
0.151845 -0.003930 0.316218
0.100747 -0.004536 0.208284
-0.036651 0.000899 0.133198
0.055705 0.013899 -0.023965
0.099323 0.133759 0.252961
-0.025452 -0.009592 -0.254156
0.051163 -0.009463 -0.135358
0.173684 -0.004187 0.121920
0.086333 0.050828 0.165339
-0.157797 -0.013930 0.023804
-0.073942 0.010907 0.050080
0.263289 -0.001825 0.120373
0.066583 0.010689 -0.015519
-0.041582 0.011348 0.136783
0.015856 0.033324 -0.081204
0.157540 -0.013598 -0.007087
0.026415 -0.047521 0.009199
-0.097503 0.001019 0.003218
0.038480 -0.040282 0.192958
-0.005365 -0.015733 -0.179503
-0.059813 -0.038698 0.074167
-0.035789 -0.014216 0.147395
-0.061738 0.002449 0.111355
-0.113801 -0.004202 0.199007
0.019425 -0.009019 0.261268
0.063625 -0.005316 0.234596
0.004146 0.036177 -0.329294
0.280077 -0.004757 0.158650
-0.026222 -0.043808 -0.065174
-0.038410 -0.015734 -0.030824
-0.027676 -0.035864 0.172823
-0.062933 -0.005528 0.215737
-0.247882 -0.003090 0.143221
-0.225588 -0.003975 0.150071
-0.055000 -0.030206 0.200169
0.026243 -0.029973 0.258936
-0.057194 0.007406 0.248375
-0.065038 -0.015245 0.110581
-0.004216 -0.023676 -0.365663
-0.102352 -0.004555 0.275913
-0.155424 0.000053 0.087021
0.054410 0.011434 -0.182921
0.064142 -0.026884 0.088231
0.026422 -0.005453 0.034862
0.000083 -0.016989 -0.271751
-0.034717 -0.036287 0.100059
-0.022055 -0.006388 0.082862
0.027451 -0.014852 -0.168862
0.086483 0.050427 0.142925
-0.042157 0.017233 -0.050283
-0.194265 -0.000187 0.088934
0.092959 -0.004423 0.299210
-0.073573 -0.003247 0.289058
0.088771 0.063439 0.172583
0.059550 0.009251 -0.047179
0.075701 0.004613 0.165607
-0.122593 -0.003458 0.090496
-0.017972 -0.024256 0.067206
-0.059304 0.002448 0.062309
-0.026972 0.010342 -0.129207
0.021659 0.019046 0.046120
0.115258 0.001170 0.019286
-0.054260 0.013713 -0.124425
0.133706 0.000533 -0.015142
0.018374 -0.035799 0.004695
-0.020971 -0.008565 -0.132385
0.020576 0.001271 0.096768
0.136242 -0.002997 0.107026
-0.017976 -0.020199 0.243290
0.077443 -0.001300 -0.003288
0.036609 -0.020989 0.199740
0.045510 0.014284 -0.194129
0.015131 -0.009699 -0.206358
0.090984 0.067003 0.259245
-0.053476 -0.044573 0.049410
-0.158447 -0.015567 0.077863
0.008801 -0.007334 -0.011953
-0.059654 -0.030101 0.210875
0.050316 -0.013301 -0.022987
0.013380 0.048693 -0.281175
-0.009634 -0.015074 0.196779
-0.041204 -0.017462 0.110674
0.016390 -0.039083 -0.017265
-0.010409 -0.015236 -0.064688
0.018794 -0.042818 -0.090534
-0.018200 -0.018072 -0.178135
0.058113 -0.031837 0.025267
-0.062952 0.000683 0.218535
0.066101 0.009757 0.042049
-0.024960 0.006937 -0.278930
-0.020441 -0.042129 -0.142892
-0.026123 -0.014053 0.220890
0.117510 -0.003373 0.234886
0.000516 -0.018019 -0.283048
-0.032477 -0.014886 0.095862
-0.012803 0.027331 -0.330860
-0.041084 0.003610 0.100025
-0.061479 0.013666 -0.050455
-0.020270 -0.014871 0.260575
0.122500 0.001358 0.054026
0.090095 -0.000686 -0.008511
0.030485 -0.031688 0.157492
-0.008363 -0.015060 -0.094121
-0.035861 -0.040839 0.162354
0.077586 -0.002366 0.228467
-0.076831 -0.003016 0.196317
0.123174 -0.005028 0.305942
0.023660 -0.053710 -0.055184
-0.019675 -0.011530 -0.193175
-0.042162 -0.045592 0.056009
0.094421 -0.003695 0.114107
0.148342 -0.022375 0.069488
0.017591 0.036149 -0.257746
-0.065711 -0.012306 0.071224
0.022624 -0.026155 0.254565
0.037639 -0.044350 0.068270
-0.021959 -0.027083 0.218647
-0.059667 -0.002467 0.054925
-0.179829 -0.004047 0.144693
0.023723 0.006458 -0.289755
-0.085807 0.052269 0.228465
0.015295 -0.010160 -0.425498
-0.029654 0.003239 0.064970
-0.046510 -0.037992 0.227444
0.018275 -0.009379 0.169910
-0.017553 0.004670 0.173977
0.012494 -0.014095 -0.119220
0.049967 -0.036500 -0.081249
-0.126872 -0.012865 -0.036889
-0.098936 -0.002609 0.097367
-0.011125 -0.019287 0.055528
-0.012124 -0.009823 0.231685
-0.049705 -0.025129 -0.119446
-0.005237 0.042400 -0.069496
