-0.157976 0.598079 -0.165387
0.082499 -0.378199 -0.208916
-0.395856 -0.314684 -0.386524
-0.413862 0.352654 -0.144574
-0.137993 0.348336 0.345308
0.244210 -0.052643 0.252817
0.484083 0.194586 -0.027242
-0.022436 -0.316262 -0.360931
-0.101786 -0.193591 -0.075415
0.346835 0.266465 -0.286108
-0.093874 0.681706 0.089178
-0.404596 -0.299100 -0.035243
0.472604 0.701391 0.043752
0.146504 -0.736655 -0.174171
-0.397345 0.551543 -0.153279
-0.391214 -0.604251 -0.090239
-0.430156 0.365342 0.027341
-0.134591 -0.754066 -0.062659
-0.200550 -0.240700 0.037815
-0.163882 -0.364054 0.123653
-0.023777 -0.087557 0.184734
-0.320998 -0.044607 -0.361998
0.273532 -0.092185 0.015832
0.402425 0.146042 -0.187512
0.143031 0.248951 -0.383869
-0.240534 0.049025 -0.214679
0.176423 -0.654679 0.105097
-0.203718 0.099632 0.259708
-0.106115 0.257562 -0.341279
0.215739 0.721946 0.119720
0.256558 -0.237175 -0.021072
0.452706 0.571759 -0.148042
0.051075 -0.127796 -0.037238
0.518152 0.737450 -0.083280
-0.164005 -0.643682 0.219702
0.526626 0.495548 0.076811
-0.242354 -0.480087 -0.410988
-0.238290 0.331836 -0.266848
0.004078 -0.717238 -0.025516
0.228715 0.522643 -0.299691
0.038199 -0.041297 -0.162597
0.454100 0.201786 0.259197
-0.353310 -0.136045 -0.257456
-0.117630 0.096444 -0.260538
0.107952 0.703702 -0.136755
-0.307811 -0.469612 0.133319
-0.285022 -0.240148 -0.395826
-0.194802 0.241219 0.289109
-0.277865 0.137030 0.068402
0.263658 -0.706105 0.019490
-0.435531 -0.388080 -0.250023
-0.302471 0.342849 0.134365
-0.404916 -0.527345 -0.209985
0.383240 0.812125 -0.063864
0.304416 0.622512 -0.188341
-0.419073 -0.433356 0.015594
0.118919 0.327165 0.481204
-0.288205 0.603218 -0.111988
-0.181711 0.483158 0.308860
0.125853 -0.523610 0.226187
0.392075 0.438477 0.301990
-0.163620 0.004777 -0.003230
0.298931 -0.025015 -0.091874
0.309535 0.618478 0.241146
0.015991 -0.751420 0.100348
0.366035 0.385639 -0.262622
-0.225400 -0.747968 0.033468
-0.435393 -0.068929 -0.321565
-0.311053 0.558429 0.028717
-0.125024 -0.246774 -0.355107
0.459474 0.342024 0.235454
-0.015385 0.435277 -0.363770
-0.151575 -0.185031 -0.186945
-0.020220 0.006903 0.385778
0.214501 -0.341399 0.306110
0.022135 0.621276 0.323891
-0.266837 0.479351 0.154175
0.080591 -0.675702 -0.264347
0.038797 -0.664583 0.289191
-0.027834 0.656805 -0.184188
0.262635 -0.467873 0.023660
0.429182 0.421106 -0.170993
0.102927 -0.257198 0.322410
-0.300135 -0.568053 -0.341086
-0.293202 -0.363634 -0.420620
0.012169 -0.458079 0.273430
0.100853 0.709425 0.196780
-0.142487 -0.720678 -0.318711
-0.318752 0.231778 -0.289720
-0.340456 -0.662552 0.015597
-0.176737 0.516261 -0.242580
0.030800 0.207420 -0.374301
-0.317391 0.121511 -0.256977
-0.312145 -0.250826 0.018903
0.209051 -0.647831 -0.142350
0.149400 0.103319 0.464677
-0.296466 -0.736250 -0.187178
0.321350 0.129132 -0.264208
0.105294 -0.007275 0.409227
0.452319 0.592276 0.062736
0.448698 0.086243 0.039390
0.233211 0.691657 -0.136560
0.249361 0.263359 0.421020
-0.052674 0.297150 0.396347
0.288112 -0.257396 0.214961
0.076220 0.611286 -0.277225
-0.377968 -0.230277 -0.128673
-0.121667 -0.036873 0.168469
0.127078 -0.470302 -0.165590
0.212309 -0.454557 0.236384
0.211824 0.484509 0.390554
0.024417 -0.232204 -0.104642
0.487184 0.302334 -0.051537
0.300103 0.392332 0.342050
-0.107627 0.672303 -0.025666
0.015247 -0.319151 0.288164
-0.050378 0.160448 0.460283
-0.178810 -0.748467 0.168983
0.143610 -0.108234 0.266146
0.103101 0.457848 0.418542
-0.397569 0.478383 0.001922
0.552802 0.769662 0.021749
-0.007901 -0.139495 0.075342
0.104800 0.132793 -0.349558
0.103129 0.390464 -0.384447
-0.316282 0.178286 -0.082186
-0.251701 -0.689908 -0.303126
-0.008199 0.023393 -0.242340
-0.077701 -0.596809 0.166758
0.111438 -0.625882 0.198548
-0.031840 -0.410690 -0.409637
0.076516 -0.562661 -0.265295
-0.466275 -0.183451 -0.321421
-0.081608 -0.600216 -0.382850
-0.340366 0.295677 -0.205371
0.405839 0.050194 0.192438
-0.439366 -0.322810 -0.158410
0.397986 0.171591 0.343388
0.192357 -0.157923 -0.045830
-0.387924 0.442082 -0.193468
0.241936 0.254031 -0.349937
-0.082407 -0.749894 -0.237311
-0.083416 -0.470443 0.188652
0.261252 -0.132632 0.187964
0.347833 -0.019953 0.003551
-0.263270 -0.570212 0.147098
0.286361 -0.431565 0.118461
-0.101902 0.622637 0.252826
-0.097053 0.455974 0.377645
-0.466410 0.587736 -0.085243
-0.108934 0.059893 0.364168
0.375117 0.540620 0.255140
0.062361 0.183889 0.501088
-0.374897 0.261293 -0.100767
-0.028425 -0.210089 -0.005472
0.309052 0.059829 0.372078
0.214802 0.605997 0.328151
0.192081 -0.752271 -0.083796
0.486855 0.257746 0.171657
-0.020350 -0.066855 -0.076483
0.321558 -0.312896 0.129830
0.029520 0.530782 0.392269
0.072885 -0.751472 -0.103976
0.205746 -0.020050 -0.185568
0.287488 0.438537 -0.307057
-0.297066 -0.043168 -0.246700
-0.219152 0.596399 0.088000
-0.045311 -0.270270 0.183033
0.075925 0.729880 -0.019834
0.054340 -0.389409 -0.327473
-0.080641 0.163258 -0.323429
0.234696 -0.321506 -0.067370
0.012930 -0.575969 -0.347278
0.173448 -0.033181 0.343750
0.497536 0.237819 0.063709
-0.310662 0.116890 -0.159959
-0.267377 0.304802 0.235631
-0.465671 0.389870 -0.063225
0.294326 0.744944 -0.083343
-0.422047 -0.527930 -0.039035
-0.323376 0.234442 0.089628
0.560612 0.664669 0.027246
0.174675 -0.535322 -0.112145
-0.010266 0.709778 0.128477
0.402213 0.852983 0.025805
-0.175218 0.041459 -0.124105
0.145396 -0.350534 -0.142197
-0.317191 0.049330 -0.319817
0.109019 0.652107 0.298457
0.334008 -0.009616 0.212401
-0.251052 -0.166647 -0.187329
-0.317817 -0.157496 -0.362873
0.223665 -0.591153 0.053499
-0.109669 -0.207214 -0.270699
-0.029321 0.710984 0.027312
-0.066143 0.506585 -0.319281
-0.155248 -0.435495 -0.437384
0.502160 0.405837 0.045503
0.011162 -0.753462 0.197548
-0.343590 0.333444 0.043250
-0.221347 -0.435724 0.144920
-0.029141 -0.055488 0.272325
-0.210642 0.423313 -0.266417
0.518620 0.645621 -0.099247
0.457731 0.187625 -0.115976
-0.246868 0.109656 0.161130
0.381620 0.699837 0.060335
0.126105 -0.748514 0.094933
0.246961 0.126180 0.461268
0.045209 -0.117039 0.238593
-0.223398 -0.748656 -0.109678
-0.203000 -0.193472 -0.048417
0.032947 0.341118 0.448069
0.331229 0.251054 0.374607
0.091882 -0.448728 -0.267062
-0.083693 0.352907 -0.352612
0.004431 -0.746405 -0.264823
-0.453614 -0.287715 -0.302512
-0.237481 0.554923 -0.171666
0.402376 0.553191 0.162044
-0.007829 -0.181926 0.155060
-0.124397 -0.747382 -0.153549
0.058832 0.666308 -0.207855
-0.451196 0.569429 0.002934
0.044401 -0.319210 -0.272555
-0.223259 0.508088 0.233510
0.513595 0.506478 -0.069405
0.306794 -0.268845 0.045890
0.293542 0.667902 0.161185
0.480734 0.407384 0.153713
-0.092177 -0.340486 -0.412011
0.031874 0.543789 -0.327846
-0.117654 0.262605 0.334626
-0.113607 0.655238 0.170868
0.474115 0.811937 -0.066820
-0.149138 -0.019677 0.086864
-0.238284 0.073985 0.022300
0.189449 0.459699 -0.346014
-0.105902 0.649042 -0.117634
0.069723 -0.279335 -0.162166
-0.311380 0.628962 -0.032133
-0.365124 -0.227723 -0.427345
-0.170082 0.016823 0.225934
0.378493 0.070994 -0.151054
-0.378710 0.621699 -0.096591
-0.106507 -0.025470 -0.064673
-0.444451 0.480394 -0.138942
-0.115620 -0.230871 0.024765
0.538289 0.580297 0.066026
0.218409 0.052749 -0.274217
0.462537 0.796558 0.053580
0.308772 0.007830 0.295531
-0.048256 0.078441 0.435547
0.431735 0.120248 0.247017
-0.232623 0.177717 0.241009
-0.393371 -0.391548 -0.343665
-0.369793 -0.410715 0.082961
-0.232045 -0.300945 0.088753
-0.356876 -0.656349 -0.153179
-0.166288 0.327056 -0.311517
-0.185579 -0.543135 -0.410269
0.121569 -0.039851 -0.177919
-0.318707 -0.617127 0.093973
-0.161887 0.161854 0.302740
-0.048693 -0.644174 0.254925
-0.053706 -0.724597 -0.094826
0.156927 0.575873 -0.293053
-0.362665 -0.553236 -0.278023
-0.415256 0.295991 -0.035583
-0.323272 0.530765 -0.187366
0.091138 -0.170038 0.288168
0.404376 0.242661 -0.221299
-0.197360 0.401025 0.316033
-0.391325 -0.346446 0.032748
-0.108416 0.584970 -0.231757
0.072976 0.050125 -0.293689
0.464344 0.365329 -0.119536
0.264425 -0.393153 -0.036228
0.278354 0.758406 -0.002979
-0.072624 -0.207568 -0.173275
0.420159 0.047062 0.110832
0.282731 -0.112923 0.110451
-0.437950 -0.244067 -0.377491
0.292161 -0.658491 -0.056129
0.241667 -0.074075 -0.057917
0.452472 0.655789 -0.147140
-0.211554 0.322750 0.295150
-0.285978 0.136718 -0.013052
-0.328398 -0.193278 -0.187232
-0.420388 -0.529266 -0.129777
-0.102734 -0.296689 0.131610
-0.293552 -0.710315 0.061791
0.296120 0.339877 -0.324265
0.304641 0.722693 0.100250
-0.439671 -0.368969 -0.078234
-0.100175 -0.747217 0.188451
-0.194239 0.613496 -0.086613
-0.087956 -0.730129 -0.000968
-0.269511 0.511019 0.079838
0.109638 -0.182444 -0.056070
0.127087 -0.659751 -0.188972
-0.005870 -0.485413 -0.393777
-0.230822 -0.687297 0.208730
0.301704 0.203258 -0.307300
-0.209249 -0.267018 -0.394001
-0.334670 0.388145 -0.224632
-0.384599 -0.007312 -0.328786
0.420957 0.342841 -0.205260
0.388257 0.610122 -0.175399
-0.066784 0.375555 0.394968
-0.035236 -0.258315 -0.307792
0.162216 -0.586257 0.151802
0.093516 -0.078590 -0.104468
0.095551 0.262708 0.521454
0.459677 0.479471 -0.126532
0.143303 -0.457644 0.275636
-0.353031 -0.673270 -0.062052
0.178757 0.733844 0.044570
0.265239 0.324896 0.369251
-0.312408 0.017512 -0.196888
-0.060928 -0.077265 0.115604
-0.340366 -0.225151 -0.050381
0.079544 -0.749826 -0.214032
0.227735 -0.723328 -0.155923
0.067365 -0.008610 -0.228105
0.186727 0.278354 0.466327
-0.165541 0.644235 0.051143
-0.236818 0.095330 -0.277956
0.252867 0.577058 -0.249066
0.047651 -0.745132 0.266097
-0.433266 -0.160095 -0.254687
0.138560 0.727081 0.129248
0.457133 0.508002 0.122121
-0.158327 0.552305 0.282128
0.149989 0.328580 -0.383342
0.452319 0.126830 -0.068107
0.277950 -0.169839 0.046534
0.107321 0.380744 0.425611
-0.135645 -0.434015 0.141549
-0.232874 -0.745350 0.113703
0.525130 0.475219 0.002198
0.450675 0.755318 -0.116581
-0.294400 -0.185997 -0.257129
-0.333365 -0.539074 0.112238
0.060462 -0.751408 0.020659
0.193658 -0.727865 0.065419
0.251005 -0.000574 0.344281
0.401830 0.025359 0.031920
0.232513 -0.479102 -0.044893
-0.163103 0.063283 -0.195561
-0.410233 -0.457707 -0.265435
-0.361604 0.412420 0.009883
0.252889 -0.192453 0.234474
0.440659 0.417011 0.248569
-0.410756 -0.088104 -0.249533
-0.261595 -0.374832 0.127891
-0.394423 0.277145 0.048298
-0.104520 -0.367265 0.169163
-0.237400 0.084358 -0.143471
-0.077119 0.028418 -0.212753
0.170690 0.095110 -0.319114
-0.447702 -0.316898 -0.231588
0.280938 -0.746417 -0.039849
-0.169828 -0.178942 -0.115784
0.244627 -0.392637 0.262630
-0.071956 0.221808 0.404970
0.282941 0.461635 0.363954
0.169642 0.712985 -0.098071
0.496172 0.337778 0.018677
-0.093771 -0.665001 -0.344194
-0.163010 -0.590651 0.164567
0.252508 -0.279920 0.274761
-0.360775 -0.107049 -0.405885
0.079030 -0.328357 0.322618
-0.167293 0.629506 0.127365
-0.151688 -0.275564 0.081979
0.100558 -0.522245 -0.208686
0.159752 0.178354 -0.361816
0.036772 -0.396596 0.302110
0.297315 0.500986 -0.272388
-0.378142 0.571940 0.006111
0.402051 0.529378 -0.177375
-0.040489 0.521008 0.380325
0.150212 -0.318872 0.328433
0.287052 0.587498 0.304591
-0.291603 0.419284 0.113744
0.479964 0.150607 0.040320
0.557634 0.715007 -0.027988
-0.155692 -0.749253 0.017768
0.065548 0.268037 -0.389103
0.507836 0.572812 -0.102823
-0.261276 0.017164 -0.289448
0.456858 0.272959 0.256384
-0.221178 -0.409400 -0.430079
-0.480325 0.436351 0.002213
-0.045127 -0.750894 0.143651
0.215955 -0.132428 0.243565
-0.143391 0.162076 -0.290308
-0.028821 -0.728404 0.038149
-0.039308 0.279173 -0.369928
0.037230 -0.621906 -0.278900
-0.305278 -0.429709 -0.399023
0.075822 -0.488134 0.270448
0.236189 0.642176 -0.197365
-0.070103 -0.717849 -0.301212
0.200040 -0.257484 -0.071891
0.289244 -0.066834 0.163179
-0.197340 0.025434 0.054915
-0.285209 0.395809 0.179680
-0.317941 0.182161 0.029967
-0.385798 -0.594839 -0.170629
-0.379162 -0.612969 -0.015162
0.472001 0.181136 0.194269
0.136767 -0.686838 0.152980
-0.263674 0.260430 -0.258007
0.029959 0.697990 -0.129951
0.362927 0.183672 -0.252266
0.337434 0.018543 -0.131053
0.162751 0.419738 0.410206
0.235485 -0.523508 0.063636
0.424467 0.229804 0.316433
0.044888 0.024216 0.422281
0.223242 0.548254 0.365484
-0.341049 -0.295003 -0.423738
-0.155927 0.087294 0.321565
0.058710 0.676208 0.257749
-0.259543 -0.211790 -0.013524
0.246371 0.739792 0.056401
0.034067 -0.204550 -0.033897
0.356619 0.108403 0.361600
0.357046 0.590456 0.200063
0.321678 0.700144 -0.145875
0.084333 0.601534 0.350722
-0.375960 -0.488042 0.083836
-0.290225 -0.707241 -0.249219
-0.231015 0.554835 0.141043
-0.035025 -0.501315 0.225781
0.246312 0.213765 0.467778
-0.045572 -0.213262 -0.111077
-0.029448 -0.010403 -0.183942
-0.174313 0.241999 -0.299356
-0.359634 0.174128 -0.261339
0.214885 -0.749380 0.002123
-0.054687 0.079152 -0.277529
-0.046134 -0.020789 0.330133
0.393706 0.625066 0.058863
0.122256 0.044250 0.448402
0.238731 -0.470583 0.177271
-0.022890 0.644695 0.280611
-0.131190 -0.701167 0.227906
-0.353663 -0.368779 -0.393103
0.327235 0.564107 -0.210826
-0.431408 -0.462843 -0.185495
0.350235 0.088560 -0.208585
-0.314712 -0.106471 -0.320414
0.231895 -0.045226 -0.119871
0.225208 -0.663648 0.052883
-0.293173 -0.504934 -0.376603
0.411639 0.375525 0.296775
0.036024 0.382931 -0.383436
0.186945 -0.410525 0.290583
-0.300472 0.279963 0.153687
0.058292 0.315848 0.504059
-0.247807 -0.562055 -0.380430
-0.195876 -0.744888 -0.034031
-0.016674 0.153580 -0.342290
0.089154 -0.684476 0.252086
0.254971 0.668380 0.218752
-0.440002 -0.444966 -0.062455
0.492172 0.210948 0.126291
-0.182666 0.118552 -0.249628
-0.332546 -0.704545 -0.115677
-0.247169 0.504044 -0.211462
0.344555 0.813603 0.008281
-0.200678 0.046155 -0.048215
0.177165 0.704252 0.199663
0.386380 0.435106 -0.225577
-0.007584 0.630899 -0.240295
-0.462309 0.630961 -0.036844
0.009035 -0.140463 0.012602
-0.421184 -0.298145 -0.098014
0.085643 -0.614013 -0.215181
-0.216361 -0.631113 0.179893
-0.412962 -0.503663 0.020291
-0.147012 -0.289542 -0.398346
-0.123115 0.521921 -0.278279
0.159067 -0.604753 -0.140298
0.185519 -0.501873 0.201584
-0.451902 -0.132559 -0.358347
-0.042915 -0.549875 -0.394039
0.481218 0.340682 0.174801
0.060602 -0.605673 0.232570
0.402986 0.776161 0.067182
-0.271625 0.395397 -0.245297
0.244622 -0.145605 -0.010554
-0.290662 0.184816 0.113884
0.315105 -0.367358 0.096580
0.174935 -0.260242 0.320461
-0.239935 0.076806 0.086269
-0.253983 -0.499383 0.150811
0.381522 0.311562 -0.256939
-0.282758 -0.738482 -0.000996
-0.365064 0.234101 -0.239921
-0.097165 0.110931 0.400675
0.039263 0.709336 0.180534
0.242271 0.413979 0.373854
0.017924 0.139256 0.494621
0.139475 0.733348 -0.012951
-0.017313 0.208652 0.484768
-0.353852 -0.204296 -0.268347
0.004466 -0.749256 -0.095537
-0.006553 0.575832 0.357116
0.545768 0.537801 0.014531
-0.036958 -0.316364 0.228818
0.068725 -0.751870 0.134843
0.273339 -0.660647 -0.119807
-0.195020 -0.226762 -0.347750
0.149833 -0.114819 -0.065684
0.047283 0.399476 0.425386
-0.143553 -0.596530 -0.392776
-0.278609 -0.300854 -0.420359
-0.277468 0.184491 -0.290299
-0.159913 0.466829 -0.283734
0.135500 0.667403 -0.202327
0.040291 0.463944 -0.365723
0.264277 -0.638223 -0.003866
0.474464 0.264181 -0.099397
-0.313675 -0.623088 -0.288772
0.052392 -0.022444 0.379591
0.305375 -0.065113 0.077201
0.354153 0.005808 -0.072379
0.496786 0.644918 0.054236
0.075781 -0.751803 -0.039746
0.012998 -0.167232 0.211837
-0.360791 -0.292864 0.024394
0.356696 0.506997 0.306300
-0.118083 -0.037098 0.035995
-0.355695 -0.051039 -0.227914
0.093512 0.550052 -0.324254
-0.329725 0.502914 0.008266
0.085424 0.326706 -0.391097
0.118728 0.158286 0.498862
0.232998 -0.533810 0.002683
0.023314 -0.691328 -0.291836
0.281241 -0.335222 -0.022589
-0.074666 0.448501 -0.338694
-0.469503 0.528349 -0.102104
-0.263817 -0.204578 -0.326616
0.067077 -0.317984 -0.210208
-0.133176 0.521227 0.329119
0.326203 0.336447 0.340652
0.418860 0.098786 -0.113623
-0.149135 0.442791 0.347514
-0.404472 -0.069834 -0.383541
0.309511 -0.258958 0.157255
-0.072122 -0.277760 -0.360486
-0.337284 0.078382 -0.199847
0.494483 0.259461 -0.008076
0.263761 0.093503 -0.281972
0.534680 0.779192 -0.041514
-0.104871 -0.630663 0.210060
-0.214074 -0.742705 -0.272185
-0.073061 -0.051812 0.229810
-0.205809 0.047895 0.187146
0.341933 0.449747 0.335206
-0.064515 0.669036 0.207173
0.557209 0.645030 -0.031516
-0.292026 0.320416 -0.240355
0.293536 0.273889 -0.324203
0.044000 0.137244 -0.348010
-0.434430 0.409935 -0.143196
-0.060128 0.219453 -0.353035
-0.094699 -0.438612 -0.432601
0.135225 -0.752319 -0.062740
-0.009551 0.502200 -0.342947
-0.258143 -0.637321 -0.332469
0.501471 0.455170 0.114157
-0.223810 0.455910 0.275071
-0.259039 -0.260693 0.052666
0.180569 0.682787 -0.164855
-0.277782 0.130948 -0.098204
0.002152 -0.718517 0.295514
0.148460 -0.410758 -0.144200
0.137972 0.687520 0.242369
-0.380561 0.303641 -0.161099
-0.329053 0.173314 -0.140905
0.407788 0.569775 0.104330
-0.497193 0.540689 -0.035912
0.245158 0.640516 0.273144
0.169956 0.322705 0.429148
-0.138993 -0.750042 -0.257690
0.436426 0.212153 -0.166534
0.231779 0.718295 -0.081505
-0.285020 0.613963 0.019674
0.233139 -0.610437 -0.095140
0.441315 0.849295 -0.033301
0.402282 0.488487 0.266501
0.017170 -0.428523 -0.380343
-0.287865 -0.033437 -0.307065
-0.176238 -0.748711 0.095002
-0.113141 -0.540724 0.147220
-0.380105 0.503447 -0.184090
-0.228868 -0.169647 -0.125374
-0.152522 0.303563 0.308821
0.261061 -0.009101 -0.166482
0.059390 -0.538003 0.242462
0.121672 -0.707561 -0.223956
0.089360 0.197106 -0.375717
0.301189 0.116308 0.418454
0.118903 0.722937 -0.067638
0.275397 -0.424156 0.180695
-0.095173 0.622624 -0.187982
-0.282655 -0.745204 -0.130320
0.208876 0.083289 0.446793
-0.461116 -0.231620 -0.277875
0.049481 0.717696 -0.071232
-0.015695 0.357075 0.418085
-0.265135 0.445747 0.203920
-0.311614 0.299330 0.095556
0.358682 0.753284 -0.118068
-0.430468 -0.386133 -0.022585
-0.038951 -0.602789 0.210700
-0.158544 0.647289 -0.010251
-0.011721 -0.368226 0.270288
-0.197444 -0.176646 -0.222659
-0.448258 0.507825 0.005455
-0.013798 -0.044981 -0.130510
0.401934 0.114310 0.301566
0.359911 0.186070 0.385412
-0.016872 -0.197491 0.050468
-0.204205 -0.679577 -0.335658
-0.445824 -0.375773 -0.181897
0.335521 0.674440 0.085307
0.076753 -0.387652 -0.266061
-0.362530 -0.603243 0.045402
-0.220365 -0.750035 -0.167622
0.451899 0.121515 0.191823
-0.162145 -0.213850 -0.005387
0.176877 -0.057522 0.291231
-0.009312 -0.261529 0.239263
0.140922 -0.213904 0.313144
0.361163 0.027859 0.247197
0.050454 -0.250476 0.299005
0.448846 0.098641 -0.017079
-0.438706 -0.342201 -0.290238
-0.021233 0.378460 -0.372393
0.174289 0.384221 -0.372031
-0.244690 0.254128 0.251369
-0.359416 0.247799 -0.164951
0.034439 -0.075871 -0.091971
0.363676 0.393201 0.323540
0.155195 0.513454 0.398362
0.086778 -0.084841 0.273528
0.163526 0.527117 -0.322847
-0.165264 -0.491247 -0.427983
-0.058113 -0.222771 -0.251110
0.491301 0.698324 -0.115367
0.021755 0.724252 0.005088
0.121620 0.735558 0.045050
0.187853 -0.315836 -0.099521
-0.304920 0.386082 0.065861
0.482952 0.366153 -0.058353
-0.426837 0.328305 -0.081018
-0.382300 0.382794 -0.194131
0.290258 -0.422091 0.042818
-0.067393 0.687216 0.139119
-0.250177 0.615877 -0.050294
-0.188548 0.377801 -0.291849
0.089905 -0.431845 -0.184104
-0.379983 -0.212699 -0.199735
-0.406141 -0.020645 -0.278325
-0.108969 -0.555187 -0.409436
-0.456059 -0.119270 -0.303708
-0.147936 -0.214473 -0.315062
0.335704 0.460960 -0.262684
0.496864 0.275184 0.115016
0.030248 -0.276842 -0.230653
-0.040217 -0.621211 -0.351327
0.122536 0.635167 -0.247710
-0.229201 0.590452 -0.123854
0.174763 -0.208607 -0.061759
0.343439 0.342739 -0.290387
0.052109 0.483698 0.412125
-0.409659 -0.261059 -0.162735
-0.010816 -0.365215 -0.385204
-0.012400 -0.219061 -0.060997
0.370164 -0.007576 0.066353
0.073320 -0.731177 -0.266156
-0.105058 0.678002 0.034756
0.100338 -0.572337 0.212335
0.116134 -0.295020 -0.135759
0.005955 -0.040383 0.330017
0.315101 -0.263407 0.102070
-0.043837 0.257918 0.436611
-0.014382 -0.228496 -0.154554
0.326156 0.781303 -0.055809
-0.009868 -0.216827 0.201327
0.268448 -0.342640 0.258141
0.095069 0.114854 0.465522
-0.170687 0.002570 0.172287
0.533419 0.824674 0.014999
0.206409 -0.570495 0.102021
-0.022239 -0.749617 -0.216272
-0.148917 0.038131 0.296834
-0.131609 0.370184 -0.327221
-0.167957 0.559767 -0.209362
-0.417722 -0.339953 -0.342400
0.100617 -0.040471 0.353767
0.290197 -0.203543 0.168798
-0.383839 -0.502567 -0.284712
-0.039645 -0.447910 0.239063
0.137576 0.451432 -0.363005
-0.323482 -0.692222 -0.206657
0.114896 0.212307 0.510397
0.079165 -0.510691 -0.297417
0.250821 -0.481236 0.115428
-0.020068 -0.109517 0.133347
0.247889 0.016147 -0.216122
0.173450 0.143696 0.493016
-0.285604 0.341723 0.199415
-0.258866 0.566301 0.065317
0.022770 0.600575 -0.282157
0.468047 0.416887 -0.101673
0.136099 0.613985 0.338442
0.122388 -0.531066 -0.145172
0.435498 0.327773 0.282393
-0.108314 -0.050393 0.112030
0.224597 0.318203 -0.360435
-0.241393 0.133671 0.210083
-0.058747 0.616172 -0.228658
-0.345186 0.146050 -0.190408
-0.351467 0.052651 -0.277659
-0.139800 0.622187 0.205223
0.012329 0.721815 0.060538
-0.240785 -0.350581 -0.426647
0.194539 -0.473775 -0.094851
0.010403 -0.618708 0.248740
-0.014848 -0.088232 -0.026858
-0.140268 0.217262 0.315071
0.158615 0.002618 0.410006
0.310251 -0.369394 0.150432
-0.427775 0.417762 0.014229
-0.072414 -0.066305 0.167273
0.008650 -0.291752 -0.302378
0.143946 -0.158657 0.288688
0.163020 -0.011548 -0.218172
-0.153231 0.639856 -0.063478
0.443365 0.644432 0.046676
-0.063305 -0.747844 -0.164591
0.407865 0.522736 0.216249
0.465797 0.117491 0.080402
0.286358 -0.055062 -0.034761
-0.300077 0.569731 -0.158504
-0.100844 -0.199753 -0.218261
0.208579 -0.520638 -0.072799
-0.267223 0.005860 -0.232044
-0.234606 0.372365 0.284333
-0.083553 -0.239369 -0.322184
0.047925 -0.750740 -0.170955
0.494778 0.389529 -0.004844
0.076977 -0.252141 -0.116793
-0.095581 -0.418823 0.183228
-0.349923 0.220728 -0.076864
0.523618 0.716257 0.046251
0.024389 -0.526153 -0.361822
-0.277079 0.064664 -0.172834
-0.377375 -0.572850 -0.230891
0.242076 0.459991 -0.324290
-0.334261 0.483245 -0.208244
0.281944 0.061931 -0.243482
0.247573 -0.750490 -0.115014
0.497112 0.536936 0.091666
0.184323 -0.690131 -0.162311
0.173385 0.650928 0.293049
0.365930 0.001736 0.162061
0.537989 0.686214 -0.071731
-0.355386 0.582094 -0.144028
-0.358895 -0.158721 -0.416128
-0.085181 0.163451 0.414160
-0.056729 -0.539293 0.196506
-0.331816 -0.526436 -0.336002
0.432892 0.737196 0.048531
0.106851 0.087520 -0.323075
-0.321991 -0.195150 -0.135175
0.020190 -0.072141 0.265853
0.333481 0.630099 0.164638
0.220486 0.206209 -0.350582
-0.108619 -0.191000 -0.127242
-0.060632 -0.060891 -0.043602
-0.361175 0.230479 0.048757
-0.266823 0.166638 0.178009
-0.068183 -0.031719 -0.111579
0.192801 0.255244 -0.369476
-0.349637 -0.423342 -0.372285
-0.151625 -0.660451 -0.355434
0.285452 -0.276419 -0.001012
0.435095 0.075547 0.157623
-0.058178 0.668136 -0.125888
-0.289835 -0.301843 0.080617
0.019115 -0.341925 -0.343223
-0.171816 -0.746983 -0.115176
-0.355966 0.623683 0.008771
-0.037202 -0.752650 0.216067
-0.242192 -0.725248 0.175469
0.009700 -0.506433 0.251184
0.508396 0.829904 -0.029866
-0.313421 -0.386841 0.114652
0.486874 0.462860 -0.085945
-0.294762 0.087728 -0.293640
-0.108135 0.405659 0.375142
0.309830 -0.710563 -0.063620
0.304864 -0.321036 0.195271
-0.409838 -0.200739 -0.418710
-0.329636 -0.699774 -0.024568
-0.328917 0.187601 -0.019943
-0.097825 0.017716 0.337260
0.392719 0.479263 -0.198435
0.195338 -0.371130 -0.104362
-0.131548 -0.016736 0.227201
0.146966 0.055899 -0.296502
-0.239186 0.461112 -0.237970
-0.445892 -0.379752 -0.127743
-0.183845 -0.314468 0.098720
0.169836 -0.364602 0.317395
-0.215228 0.261164 -0.275808
-0.080903 -0.322404 0.174048
-0.420121 0.597263 -0.113039
-0.039684 0.114302 -0.311023
0.061517 0.722153 0.136843
0.410660 0.783908 -0.104547
-0.127542 0.002885 -0.110610
-0.104012 -0.259020 0.083968
-0.092660 -0.388304 -0.428694
0.367192 0.827963 0.052209
-0.130090 -0.749079 0.131695
-0.048850 -0.743749 0.081785
-0.379272 0.364305 0.025499
-0.380700 -0.252973 -0.062181
0.338128 0.564849 0.279298
0.489698 0.188287 0.081366
0.251522 0.063362 0.416876
-0.027548 0.111256 0.467580
-0.061318 0.681891 -0.077603
-0.037301 -0.234787 0.148295
-0.181405 -0.703519 0.229538
-0.108097 -0.211839 -0.021101
0.399797 0.070099 0.250022
-0.051066 0.457034 0.397639
0.254805 -0.074258 0.208844
0.286465 -0.036323 0.231359
0.389982 0.023706 -0.023250
0.496902 0.390230 0.092832
0.097862 -0.751206 -0.166833
0.458818 0.860092 0.049610
0.425184 0.278472 0.304625
0.356355 0.753317 0.084727
-0.194874 0.554396 0.227560
0.159619 -0.708202 0.113955
0.088332 -0.751456 0.062289
-0.087078 0.298960 0.360190
-0.404741 -0.560262 -0.005135
0.074326 0.551524 0.384782
-0.443565 0.335056 -0.022800
0.103478 -0.129300 -0.054458
0.126158 -0.735497 0.151719
-0.032057 0.328356 -0.372947
-0.459112 -0.245318 -0.328019
-0.155821 0.621580 -0.117183
0.220966 -0.029960 0.317713
0.274990 0.675001 -0.157704
-0.401950 -0.429578 -0.305460
-0.202039 0.180871 0.280705
-0.218203 0.616515 0.042724
-0.309291 -0.177669 -0.303640
0.209404 0.304869 0.405112
0.235163 0.701677 0.160504
-0.178760 -0.408227 0.140248
-0.078149 -0.684256 0.251359
-0.064372 -0.224762 0.043293
-0.038517 0.598133 0.327004
-0.314289 -0.084113 -0.267698
0.499578 0.282664 0.043793
0.391125 0.226139 0.352304
-0.012706 -0.192429 0.107353
-0.131972 0.298490 -0.331906
0.437850 0.706897 -0.139749
0.476102 0.215073 -0.079718
-0.149860 -0.193542 -0.065736
0.107501 -0.334352 -0.168759
-0.328503 0.453971 0.010103
0.009724 -0.616059 -0.318981
0.180750 -0.541835 0.160733
0.310445 -0.050490 0.011487
0.073263 -0.429167 0.302358
-0.433712 -0.482510 -0.135137
0.290082 0.277323 0.372063
0.052857 -0.568621 -0.307613
0.271063 0.157156 -0.311498
-0.409623 0.637163 -0.062167
-0.350815 0.272921 0.070408
-0.034085 0.705003 -0.020758
-0.122245 -0.023433 -0.018686
0.442413 0.141288 -0.113949
-0.401516 -0.396520 0.041913
-0.146842 -0.387701 -0.436027
-0.086013 0.596579 0.301702
-0.262224 -0.742015 -0.230212
-0.271633 -0.616988 0.137270
0.310865 0.396051 -0.305573
0.214133 0.185107 0.489842
0.532343 0.551855 -0.058429
-0.218040 -0.557204 0.158283
0.403681 0.390279 -0.220243
0.278335 0.161592 0.451359
0.176977 0.589569 0.353362
0.270083 0.711595 -0.112530
0.472463 0.319637 -0.106156
0.386843 0.012631 0.119926
-0.040220 -0.686572 0.283297
0.044054 0.273001 0.521007
-0.471574 0.391084 -0.011905
0.027989 -0.249962 -0.162446
-0.467116 0.428035 -0.092531
-0.066192 -0.073748 0.067934
-0.243384 -0.748129 -0.040360
-0.239661 -0.181165 -0.245101
-0.313331 -0.000107 -0.345707
-0.141915 0.596831 0.247078
-0.365090 -0.042343 -0.380665
-0.326880 0.267717 -0.241851
0.250376 0.505524 0.371573
0.253126 0.573719 0.338247
0.200997 -0.573863 -0.101906
0.467884 0.391563 0.196894
0.290858 0.242741 0.409616
-0.051652 -0.727251 -0.047234
0.470159 0.231577 0.225613
-0.075243 0.060834 0.400460
0.285275 -0.234104 0.020850
-0.303613 -0.662011 0.088864
-0.423055 0.306187 0.023748
0.058405 0.576941 -0.306377
-0.244683 0.504382 0.191194
0.177396 0.730481 0.092895
0.402711 0.653917 -0.163993
0.420413 0.284518 -0.205627
0.092764 0.435841 -0.375159
0.170689 0.042212 0.433146
-0.409230 0.536430 0.001504
-0.127741 -0.480727 0.139624
-0.222743 -0.340503 0.113148
-0.258455 -0.435842 -0.416304
-0.014901 -0.250856 -0.262870
0.426162 0.153551 0.290996
0.284529 -0.153478 0.134712
-0.398878 -0.186638 -0.234314
0.098778 -0.475064 -0.208926
0.234165 -0.752256 -0.062517
0.449322 0.088166 0.113394
0.336466 0.049115 -0.178940
-0.001450 -0.136490 0.167158
0.478437 0.540119 -0.124508
-0.284121 0.485293 0.043233
-0.208050 0.043334 -0.001857
-0.090545 -0.728529 0.230807
-0.005110 0.313706 0.451157
0.269798 0.378612 -0.333953
0.132843 -0.750934 -0.131556
0.296577 0.026224 0.341797
0.222752 -0.191989 -0.035042
-0.361614 -0.350202 0.069104
-0.364606 -0.653466 -0.102934
0.498734 0.830193 0.047475
-0.416732 -0.548376 -0.080862
0.143042 -0.749642 0.049071
0.088207 -0.054784 -0.148638
-0.121617 -0.749695 -0.211711
0.340338 0.220276 -0.282283
-0.396661 -0.272516 -0.406787
-0.260319 0.142509 -0.278785
0.498926 0.768160 0.046209
-0.105261 0.211928 -0.331327
-0.155287 -0.195611 -0.272968
-0.435490 -0.484261 -0.088500
-0.129783 0.034571 -0.179955
0.271673 -0.459297 0.068628
-0.204206 -0.169455 -0.164908
-0.335103 -0.639920 0.055960
0.191574 -0.046701 -0.142936
0.540816 0.619776 -0.066912
-0.232351 -0.303104 -0.416696
0.196562 -0.112440 -0.054289
-0.148280 -0.019870 0.134471
-0.075963 0.562423 -0.276850
-0.062895 0.021593 0.375091
0.021084 0.256710 -0.382366
-0.333297 0.612978 -0.107454
-0.204498 0.059733 -0.164895
-0.015225 -0.751259 0.256795
0.555921 0.614133 0.039801
0.337848 0.650671 -0.173107
-0.143873 0.002850 -0.067303
0.296375 0.761775 0.076886
0.265136 -0.025843 0.284177
0.509425 0.464265 -0.044997
-0.008240 0.055893 0.440735
-0.271113 0.143613 0.121210
0.374784 0.147470 -0.224483
0.318168 -0.331116 0.068155
0.561197 0.723600 0.020479
-0.016029 0.486942 0.399976
-0.102880 0.060111 -0.234163
0.159570 0.367082 0.412065
-0.091490 -0.750669 -0.091284
-0.349926 -0.594570 -0.262241
0.470734 0.300111 0.220183
0.054079 -0.161453 0.262386
0.015703 0.045071 -0.275046
-0.097490 0.398076 -0.340177
-0.379331 0.015636 -0.286967
0.137727 -0.634747 0.161961
-0.083245 0.510384 0.367437
0.008344 0.678586 -0.166257
0.261066 -0.622665 -0.060867
0.112172 -0.671181 0.205705
-0.176989 0.345867 0.321417
0.446617 0.327549 -0.163573
-0.406123 0.314057 -0.121373
-0.260298 0.205408 0.217515
0.491375 0.211052 0.014701
0.157004 -0.495062 -0.124364
0.517844 0.453025 0.062790
0.280838 -0.112384 0.056061
0.014359 -0.736437 0.014528
-0.044162 -0.473084 -0.415201
-0.256425 -0.739052 0.065618
0.149828 0.130678 -0.343033
-0.124027 0.118687 0.364722
-0.344426 0.432087 -0.217913
-0.214465 0.066472 -0.095104
0.261035 0.200151 -0.330944
-0.284351 0.461984 0.082219
0.064956 0.643521 0.305363
0.119418 -0.352173 0.326920
-0.207290 0.087355 -0.227737
-0.056228 -0.207401 -0.062190
0.257061 0.372025 0.365063
0.495710 0.612349 -0.121415
-0.489425 0.584997 -0.041460
0.054872 0.229445 0.514705
0.263565 0.535501 -0.273740
0.265491 -0.191702 0.008906
0.057572 -0.442394 -0.341946
-0.063032 0.697686 0.060177
-0.006970 -0.078552 0.225665
-0.353149 -0.447214 0.103651
-0.290051 -0.534717 0.139379
-0.098026 0.123208 -0.291096
0.195845 -0.093279 0.253313
0.241623 -0.268949 -0.049282
0.034416 -0.750679 0.059264
0.079051 -0.032508 -0.190794
0.421811 0.048327 0.065854
-0.106274 -0.730776 0.045674
-0.234182 0.376577 -0.264363
0.048732 -0.296784 0.308227
-0.077596 0.299777 -0.358409
0.029265 -0.015816 -0.205319
-0.274837 0.246944 0.208244
-0.355138 -0.092425 -0.246735
-0.100930 0.224055 0.350552
-0.350647 0.634115 -0.063861
0.298005 -0.006784 -0.132842
-0.286620 -0.430210 0.136408
0.195716 0.583998 -0.272070
-0.359269 0.336222 -0.202543
0.220426 -0.258154 0.297256
0.428970 0.686851 0.045708
0.110334 0.278845 -0.390308
0.055230 -0.220844 -0.069825
-0.273233 -0.708440 0.108666
-0.430147 -0.428397 -0.231424
-0.250404 -0.660022 0.178478
0.282603 0.209576 0.442101
0.422026 0.486679 -0.165575
0.270792 0.744825 -0.045435
0.354240 0.071727 0.331802
-0.228386 -0.600949 -0.370610
-0.437748 -0.282003 -0.354105
0.081684 0.713402 -0.101687
0.032061 0.723189 0.100414
-0.282202 0.433083 0.154990
0.354545 0.280217 0.345069
0.242950 0.417501 -0.337334
0.369735 0.556589 -0.191185
0.442362 0.379692 -0.161922
0.451788 0.437662 0.210876
-0.101685 0.663528 -0.075643
0.465481 0.449734 0.167014
0.244695 -0.430735 -0.049142
-0.339392 -0.309548 0.059446
0.270227 -0.434725 -0.004771
-0.177869 0.121015 0.296681
-0.197601 0.594832 0.147658
0.402891 0.107565 -0.156225
0.054292 -0.353788 -0.298317
0.035886 0.572094 0.369014
0.378159 0.035974 -0.094045
-0.269119 -0.332664 0.104618
0.112683 -0.018676 -0.215921
0.318306 -0.035466 0.174237
0.325107 0.654768 0.123408
-0.254633 0.214756 -0.267726
0.262955 -0.409476 0.226213
-0.334959 -0.208749 -0.090953
0.287034 -0.301715 0.230629
0.092158 0.501426 0.407491
0.262910 -0.245446 0.249414
-0.112573 0.667170 0.126241
0.492271 0.578432 0.074824
0.300471 -0.221024 0.074256
0.215214 0.000609 0.376303
-0.372212 0.242409 -0.045108
-0.143384 -0.746075 0.196246
0.148563 -0.055546 -0.143726
0.378914 0.586475 0.145650
-0.190743 0.284773 0.285434
-0.242731 0.046809 -0.262956
0.458339 0.228657 -0.131410
0.132950 0.342741 0.441443
0.205721 0.230535 0.485005
-0.027575 0.553403 -0.306757
-0.193241 -0.469174 0.147905
-0.486648 0.479451 -0.002093
0.509142 0.435114 -0.004867
-0.187878 -0.300628 -0.412017
0.270801 0.602026 -0.218028
0.183928 -0.150519 0.273094
-0.036944 0.693109 0.169872
-0.444826 0.366409 -0.093583
-0.454678 -0.175730 -0.364271
-0.267616 -0.595501 -0.350778
-0.295221 0.620879 -0.071800
-0.159357 0.386201 0.342476
0.060868 -0.707367 0.283297
-0.352933 0.055949 -0.234259
-0.311358 -0.205950 -0.390137
-0.132699 -0.519791 -0.423737
0.050521 -0.752308 0.174304
0.193681 0.548317 -0.299170
-0.308700 -0.707868 0.015590
0.306556 0.642757 0.196259
-0.075942 -0.263735 0.122677
0.063021 -0.209481 0.292385
-0.011006 0.202090 -0.364067
0.193283 -0.750184 -0.127098
-0.268531 0.115319 -0.137578
-0.155886 -0.009510 0.045261
-0.035182 0.038839 0.411379
-0.331779 -0.338699 -0.415209
-0.258481 -0.193708 -0.285080
-0.408448 0.602855 0.003906
0.233036 -0.364454 -0.071611
-0.355355 -0.570297 0.080441
-0.407648 -0.548068 -0.166455
-0.181630 0.008050 0.092904
-0.409167 -0.041769 -0.342410
-0.193416 -0.454542 -0.431070
0.454395 0.541752 0.088433
-0.013714 -0.650306 0.279342
0.218423 0.735851 0.006341
-0.313188 -0.657715 -0.261207
0.304821 0.781653 0.035591
0.188184 0.012540 -0.243464
0.159312 -0.645816 -0.153175
-0.028964 -0.105378 0.090922
-0.322577 -0.711497 -0.163602
0.314459 0.484134 0.345239
-0.047598 -0.220616 -0.209486
0.101283 -0.652918 -0.224584
0.230097 -0.729422 0.036997
0.276998 -0.111911 0.153862
-0.472253 0.485600 -0.099992
0.093608 -0.490634 -0.258229
-0.308879 -0.266796 -0.419406
0.485192 0.249670 -0.056210
0.152261 -0.486323 0.245164
-0.300993 -0.221413 -0.018056
0.048305 0.082955 -0.315351
0.297939 -0.685377 -0.023392
0.151042 0.284388 0.489047
-0.102510 -0.742181 -0.287663
-0.444474 -0.411584 -0.088734
0.175810 0.294950 -0.378267
0.089819 0.349888 0.449379
0.373860 0.347096 0.317910
0.335220 0.038851 0.312341
0.107299 -0.220682 -0.074875
0.106332 -0.132614 0.274409
0.083868 -0.643747 0.240559
-0.347475 -0.655530 -0.194758
0.080061 0.050300 0.448148
0.132591 -0.581867 0.186153
-0.178702 0.287202 -0.302987
0.098381 0.680661 -0.186170
-0.210317 -0.270207 0.066939
-0.268532 0.356744 0.235400
-0.142098 0.079056 -0.230386
-0.188399 -0.582021 -0.393304
-0.003755 -0.418664 0.273637
-0.174576 0.030456 -0.083050
0.329957 0.172079 -0.276439
-0.215083 -0.387257 0.133484
0.376543 0.230396 -0.250951
-0.111177 0.490409 -0.304119
-0.203333 0.067986 0.231406
0.186022 -0.752026 -0.041784
-0.051836 0.202156 0.452538
-0.359459 -0.253354 -0.025059
-0.236908 0.080248 0.132228
0.134627 0.249718 0.507221
-0.065779 0.695698 0.005838
0.079093 -0.455086 -0.306992
-0.428306 -0.463964 -0.012253
0.291031 0.565516 -0.234654
-0.094183 -0.302947 -0.392436
0.243638 -0.601694 0.002012
0.422266 0.813860 0.066805
0.136601 -0.048245 0.329332
-0.377899 -0.627340 -0.057352
0.284186 -0.153807 0.085196
-0.245256 -0.194584 -0.050181
-0.437252 -0.336508 -0.105733
0.351198 0.578346 0.240133
-0.037993 -0.748154 -0.130749
0.305748 -0.317832 0.023959
0.489597 0.372569 0.130505
-0.062454 0.117387 0.443535
-0.085661 -0.749150 0.131992
-0.457303 -0.188878 -0.274039
0.148962 -0.023095 0.377976
-0.267868 -0.747531 -0.090880
0.322101 0.300094 -0.307591
-0.072472 0.417845 0.393981
-0.201429 0.530242 -0.211447
0.381564 0.556509 0.216667
-0.118009 -0.594944 0.178766
-0.332102 0.212917 -0.126998
0.065697 0.438878 0.422001
-0.249543 0.441936 0.243214
-0.414565 0.481220 -0.168534
-0.132817 0.154820 0.332316
0.438550 0.506307 0.159776
-0.285984 0.516260 -0.201074
0.412199 0.743349 -0.131184
0.024231 -0.750301 -0.205576
0.392881 0.841330 -0.013401
-0.066223 0.644577 0.254579
-0.420664 -0.393744 -0.294366
0.020756 -0.177947 -0.001949
0.324732 -0.001223 0.252340
-0.437128 0.457914 0.007100
-0.338085 -0.497684 0.116113
-0.378674 0.194863 -0.229257
0.017567 0.659656 -0.208722
-0.229547 0.094404 0.195958
0.102559 0.723432 0.150130
-0.138928 -0.314397 0.120607
0.446002 0.441944 -0.138675
-0.221010 0.538869 0.198988
-0.130650 -0.324804 -0.414933
0.346975 0.611395 -0.183519
0.421910 0.059794 -0.021302
0.153999 -0.170403 -0.056163
0.031448 0.010722 -0.243353
-0.259423 0.514148 0.120107
-0.179164 0.044576 0.255916
0.453204 0.151282 0.229450
-0.075921 0.647556 -0.157390
-0.319269 -0.094877 -0.360106
-0.129002 -0.471912 -0.434305
-0.215647 -0.180898 -0.085956
0.109840 0.302594 0.513459
-0.026641 0.709482 0.090310
0.209585 -0.631737 0.074362
-0.173818 -0.738977 -0.298566
0.074550 -0.412763 -0.299776
-0.012961 0.685785 -0.131407
0.196570 0.654075 -0.200174
0.222545 0.689459 0.203824
0.118869 -0.433429 0.298757
-0.192641 0.443432 0.313339
-0.129840 0.553948 -0.248892
0.232097 -0.107922 -0.033524
-0.411836 -0.110705 -0.403104
-0.132263 0.663162 0.066872
0.104131 0.028775 -0.276824
-0.231172 -0.225649 0.014436
-0.406536 -0.570978 -0.047762
0.116664 0.577769 -0.302270
-0.292066 -0.181819 -0.203248
0.430043 0.090733 0.208583
-0.386813 -0.352922 -0.373801
0.535035 0.510972 -0.015950
0.208205 0.119403 0.473794
0.049405 -0.730297 -0.013058
0.412382 0.207833 -0.200622
-0.281247 -0.177130 -0.139039
-0.332513 0.185924 -0.290126
-0.335193 -0.190243 -0.227776
-0.217402 0.135503 -0.263882
-0.252045 0.092744 -0.011678
0.191269 0.716808 0.152402
-0.036947 0.466742 -0.348339
-0.203812 -0.652988 0.215073
-0.013123 -0.708508 -0.283533
-0.438461 -0.115693 -0.266715
0.058283 -0.363237 0.316047
0.359577 0.641428 0.080845
0.094530 -0.573571 -0.203308
0.408103 0.041016 0.152472
-0.357928 0.023294 -0.322704
-0.168337 -0.749846 -0.181284
-0.337866 0.382195 0.024213
0.063727 0.511157 -0.347457
0.317775 -0.030861 -0.045097
0.490898 0.343198 -0.025352
0.301109 -0.683119 -0.092740
0.471244 0.176341 -0.067369
0.444674 0.531631 -0.147937
0.059479 0.698790 0.214508
-0.299611 0.171569 0.065770
0.151693 0.459107 0.410677
0.151408 0.701746 -0.132871
0.027009 0.649294 0.291368
-0.315569 -0.581364 0.113451
0.148668 -0.289501 -0.111702
0.132216 -0.084671 -0.092936
0.255985 0.709583 0.126281
-0.128890 0.622390 -0.150224
-0.015074 -0.117699 0.041577
0.379609 0.270632 -0.257134
0.492197 0.315635 0.137228
-0.392823 0.329099 0.041032
0.467030 0.134851 -0.021781
-0.412547 -0.332202 -0.012773
0.340206 -0.032638 0.054647
0.176612 -0.748791 0.025946
-0.405998 0.277160 -0.000640
0.058940 0.643823 -0.241843
0.334142 0.418190 -0.280497
0.369908 0.015969 0.200038
0.429156 0.473389 0.230615
0.093222 0.238315 -0.385849
-0.289024 0.301637 0.193364
-0.032130 -0.733423 -0.002073
-0.060780 0.408565 -0.354183
-0.194828 -0.734017 0.206230
0.390418 0.349362 -0.244883
-0.203163 0.340183 -0.286980
-0.393014 -0.037056 -0.235815
-0.273821 0.123320 0.023313
-0.043788 0.048576 -0.253118
0.265878 -0.297994 -0.034569
0.311399 -0.056119 0.116326
-0.305291 -0.068113 -0.329751
0.147462 -0.541747 0.197011
0.033338 0.721112 -0.034160
0.422700 0.815211 -0.072771
0.060130 -0.097119 -0.068857
-0.359749 -0.651836 -0.028278
-0.431069 -0.287566 -0.184737
-0.127546 0.578075 0.287867
-0.033765 0.393603 0.410032
-0.066739 -0.040523 0.273398
0.257446 0.300109 -0.345311
-0.099073 0.648325 0.210608
0.030375 -0.742526 -0.065233
-0.148960 0.263293 0.308209
-0.070999 0.256162 0.383740
-0.310309 -0.019896 -0.216485
-0.249867 -0.722024 -0.278754
0.193768 0.421040 -0.356727
-0.348755 0.538436 0.006279
0.185611 0.344295 -0.372799
-0.113576 -0.192979 -0.176009
-0.444509 0.621474 -0.074894
-0.009776 0.073332 -0.291178
-0.055138 -0.337217 -0.396511
0.396083 0.268429 0.331550
-0.281111 -0.214919 -0.364694
-0.053420 0.619600 0.296355
-0.191340 0.480658 -0.254315
-0.229962 -0.234499 -0.366083
0.061997 -0.176014 -0.038366
0.264824 -0.721129 -0.140690
0.032703 -0.468701 -0.368422
0.292677 -0.392395 0.013637
-0.411181 -0.493476 -0.230527
0.246760 -0.322737 0.285369
0.017740 0.198497 0.501376
0.265548 0.483455 -0.301794
0.194352 0.442090 0.399753
-0.421850 -0.508446 -0.164006
0.216601 0.490852 -0.322111
-0.304150 0.365616 -0.237511
-0.297792 0.233626 0.142939
-0.479556 0.533409 -0.000776
-0.214183 -0.747490 -0.070809
0.017048 -0.124781 0.211341
-0.427882 -0.345140 -0.048430
0.483141 0.296236 0.181646
0.136510 -0.066409 0.293800
0.102419 -0.205807 0.306497
-0.386319 -0.531106 -0.254730
0.367974 0.795556 0.081272
0.019811 -0.252508 0.273567
-0.358197 -0.003581 -0.211128
-0.336317 -0.568319 -0.303837
0.347610 0.714608 0.081134
0.266844 0.101932 0.436694
-0.035310 -0.745078 -0.263113
-0.401468 -0.443934 0.049678
0.222430 0.255340 0.458761
0.179898 -0.616054 0.113925
0.037338 -0.752364 0.228380
0.498359 0.782012 -0.076715
-0.142963 0.481477 0.341070
-0.205592 0.574223 -0.158032
-0.175965 0.631781 0.088750
-0.255736 0.108372 0.111571
-0.307663 0.352818 0.087242
-0.300992 0.155954 -0.053261
-0.307687 -0.734280 -0.101651
-0.255378 -0.748423 -0.186027
-0.139428 -0.247616 0.051567
0.451119 0.611159 -0.150894
0.309832 0.781776 -0.019818
-0.396688 0.279525 -0.066339
0.264841 0.025073 0.370949
-0.356547 -0.207846 -0.163662
0.425833 0.540038 0.123036
0.246013 -0.670146 -0.146681
-0.060125 0.336737 0.392259
-0.176293 -0.747750 0.051401
0.083291 0.733295 0.035919
-0.112539 -0.742665 -0.029178
-0.209459 0.619263 -0.050701
-0.452411 -0.281849 -0.249005
0.559588 0.613407 -0.002485
-0.140475 0.213189 -0.313712
-0.431782 -0.094869 -0.370267
-0.398508 -0.259583 -0.096631
0.495073 0.305653 -0.003939
-0.065124 -0.431519 0.214036
-0.251055 0.330691 0.260254
-0.228968 0.285096 0.269698
-0.305095 -0.206141 -0.053967
0.426121 0.166814 -0.164155
-0.071116 0.005303 -0.181667
-0.427463 0.527501 -0.146171
0.147838 -0.568126 -0.132079
-0.278982 -0.662167 -0.298613
-0.065699 -0.718529 0.046839
-0.126621 -0.689470 -0.336240
-0.442252 -0.414616 -0.178704
-0.217289 -0.747763 0.071755
0.155651 -0.447543 -0.132973
0.288375 0.612853 0.274847
-0.402174 -0.577183 -0.116242
0.245021 0.729542 0.094091
-0.327159 0.332035 -0.224384
-0.433052 -0.070199 -0.276049
0.237149 -0.226509 0.271669
-0.211847 0.299444 -0.282137
-0.383218 -0.612163 -0.135851
-0.402286 -0.126016 -0.247002
-0.439903 -0.202213 -0.388643
0.061111 0.121525 0.483250
-0.183727 -0.710571 -0.323196
-0.320587 0.599486 0.025714
-0.177574 0.178299 -0.277536
0.135594 0.211434 -0.377076
0.003695 0.399334 0.419932
0.013576 -0.011049 0.379212
-0.380497 -0.429967 -0.337816
-0.111739 -0.666180 0.224117
-0.267553 0.619576 -0.015789
-0.133204 -0.746171 -0.111715
-0.060519 -0.683915 -0.317329
-0.332202 0.206343 0.057744
-0.148252 0.125226 -0.266129
-0.360137 0.151239 -0.225764
-0.485834 0.437093 -0.036118
0.117514 0.172195 -0.366521
0.122686 -0.371451 -0.165525
0.076324 -0.746274 0.225836
-0.325455 -0.454908 -0.377713
0.355530 0.141397 0.381752
-0.044472 0.553497 0.359747
0.497427 0.334910 0.060702
0.099240 0.672929 0.267411
0.054331 0.691365 -0.159193
0.454458 0.789943 -0.091676
0.464640 0.117055 0.022550
-0.224161 -0.598823 0.160370
-0.318280 -0.144314 -0.326533
0.017034 -0.109716 -0.024811
-0.249753 -0.525643 -0.392773
-0.390582 0.440660 0.004977
-0.391401 -0.512144 0.057218
0.058270 -0.528602 -0.324302
0.004094 -0.027359 -0.173643
0.389831 0.134408 0.338069
0.430598 0.863320 0.002049
-0.359534 0.254251 -0.207680
0.013127 0.172674 -0.358800
-0.334628 0.113739 -0.214611
0.304355 -0.397834 0.069011
0.485953 0.654111 -0.128466
0.485078 0.506364 -0.107559
-0.160574 -0.259264 -0.379229
-0.386648 -0.580327 0.021973
0.310186 0.731161 -0.115328
0.386319 0.599357 0.093051
-0.219455 0.132941 0.249423
0.001530 0.665940 0.260282
-0.450668 0.615107 -0.004094
-0.035628 -0.582056 -0.374790
0.129773 0.689934 -0.164905
0.483407 0.736804 -0.109977
0.327873 0.527196 -0.234075
0.313965 0.018493 -0.161161
-0.105436 0.343949 0.364710
-0.159998 -0.187782 -0.235931
-0.121678 0.300840 0.331078
0.128166 0.732122 0.092916
-0.112391 -0.639307 -0.365313
0.191987 -0.313425 0.318879
0.008921 -0.086711 -0.056596
0.426909 0.192611 0.308564
0.537505 0.529385 0.063128
0.240519 -0.448996 0.211436
0.362131 0.422645 -0.254654
-0.094710 -0.045092 -0.003853
0.330096 0.205165 0.406521
0.113752 -0.752136 -0.028580
-0.059159 -0.375925 -0.415714
-0.000595 -0.752610 0.161460
-0.284479 0.535199 0.042680
-0.297455 0.150331 -0.279198
0.009186 0.304448 0.487220
-0.352916 0.199355 -0.155607
-0.231585 0.410053 0.281946
0.287275 0.423851 0.358650
0.227442 0.554866 -0.279859
0.089251 -0.470765 -0.166798
-0.267780 -0.015709 -0.271870
-0.254084 -0.385977 -0.425266
0.378426 0.005963 0.008103
-0.068640 -0.623577 0.200096
0.261772 0.342703 -0.342251
0.310447 0.086607 -0.243189
0.316592 0.556318 0.309007
-0.099331 -0.054197 0.075648
0.135249 0.718437 0.168111
0.293705 0.356656 0.352033
-0.080603 0.673199 0.172082
-0.340891 -0.075415 -0.383894
-0.022489 0.253774 0.470950
-0.245986 -0.259216 -0.393308
-0.160344 0.414756 -0.301209
0.229723 0.329873 0.380370
-0.124932 -0.401734 0.157427
0.288554 0.082595 0.407941
0.389713 0.201092 -0.229732
0.235322 -0.623995 0.039867
0.389801 0.741274 0.064151
0.018833 -0.281602 -0.265943
-0.413395 -0.374645 0.014015
0.535454 0.500951 0.027248
-0.268621 0.061873 -0.300176
-0.318610 -0.276791 0.044928
0.512252 0.678472 0.049368
-0.445451 0.569987 -0.114674
0.113333 -0.292329 0.329126
0.227868 -0.542908 -0.036398
0.249190 -0.750079 -0.020734
0.205522 0.091091 -0.306596
0.121899 -0.740436 -0.206507
0.320813 -0.300057 0.088474
0.214903 -0.386065 0.289917
0.198580 0.159574 -0.343257
0.218013 -0.065884 -0.092347
0.508968 0.537283 -0.092175
-0.035438 -0.088386 0.029467
-0.064515 -0.751368 0.179315
0.424977 0.053921 0.027392
-0.149416 -0.621305 0.194095
0.029281 -0.750147 -0.122942
-0.219197 0.047107 0.078842
0.178379 0.558034 0.372604
-0.000510 0.024097 0.411883
0.026137 0.430769 -0.373695
0.032016 -0.327542 -0.311701
-0.388057 -0.469650 -0.300870
-0.014152 0.623773 0.309684
0.176222 -0.417718 -0.120992
-0.247021 -0.746845 0.002125
-0.356133 -0.012115 -0.361619
0.016441 -0.385665 -0.371258
0.111974 -0.482548 0.266414
0.274713 -0.209298 0.210121
-0.434513 0.446102 -0.149843
-0.136302 -0.748968 0.056577
-0.010218 0.173220 0.491500
-0.104319 -0.027916 0.249188
0.546890 0.793257 -0.005755
0.114996 0.355965 -0.387889
-0.168225 0.617642 0.161997
0.206184 0.612052 -0.241798
0.241774 0.616114 0.305567
0.518532 0.616641 0.062429
-0.318372 -0.682045 0.039653
-0.260335 0.105415 0.062794
0.149814 0.498577 -0.341101
-0.307466 0.164882 -0.001059
0.355365 0.304594 -0.281412
0.018905 -0.253407 -0.197616
-0.224297 -0.750546 -0.204966
0.290432 -0.719307 -0.012381
0.218041 -0.457466 -0.072261
0.171194 -0.270772 -0.090131
0.298904 -0.402331 0.140048
0.274473 0.645054 0.238671
0.179255 0.734441 0.008238
0.054734 -0.749599 -0.240524
0.228490 -0.086395 0.230684
-0.407894 0.381856 -0.168452
0.197135 -0.617688 -0.126098
-0.226149 -0.640689 -0.349106
-0.137602 0.002649 0.262423
-0.443482 -0.368730 -0.217313
0.226835 -0.236001 -0.047107
0.171190 0.211923 -0.368903
0.477008 0.849569 -0.027581
-0.268361 -0.239012 0.025285
-0.312520 0.416104 -0.230359
-0.487194 0.546259 -0.070171
-0.248955 0.613313 0.021541
-0.372384 -0.604342 -0.202734
0.276074 -0.045720 -0.073176
-0.011379 0.243657 -0.373637
-0.007108 -0.157348 0.113448
-0.349261 0.039816 -0.202249
0.135179 0.550223 -0.316276
0.042679 0.344217 -0.389603
0.085897 -0.751956 -0.004793
0.047941 0.729453 0.030479
0.300494 0.680963 0.122622
-0.258871 -0.719721 0.144109
-0.061157 -0.523334 -0.410003
0.064360 0.414645 -0.381104
-0.388077 -0.312639 0.011917
0.321778 0.100778 0.393438
0.079721 -0.583807 -0.236428
-0.313081 0.061336 -0.179521
-0.278059 0.468550 0.116898
-0.291441 -0.636937 0.115042
-0.289325 -0.472743 -0.391873
-0.029042 0.314573 0.416797
-0.337516 -0.202901 -0.414304
-0.131617 0.600907 -0.189355
0.080288 0.011630 -0.256467
-0.362016 0.481608 0.000409
-0.217285 0.048168 0.035944
-0.129786 0.053611 0.335901
-0.255936 -0.412195 0.138799
0.069708 0.114417 -0.338714
0.485376 0.210143 0.161241
-0.122443 -0.730323 0.007884
0.428373 0.091790 -0.080040
-0.011988 -0.018377 0.355552
0.482546 0.162658 0.104955
