ply
format ascii 1.0
element vertex 711
comment vertices
property float x
property float y
property float z
end_header
-0.330556005239486694 -0.0398680008947849274 0.0195870008319616318
-0.331995010375976562 -0.0393650010228157043 0.018507000058889389
-0.333218008279800415 -0.0393650010228157043 0.0187229998409748077
-0.333505004644393921 -0.0398680008947849274 0.0201619993895292282
-0.335088014602661133 -0.0391490012407302856 0.0185790006071329117
-0.336167007684707642 -0.0394369997084140778 0.0194429997354745865
-0.337173998355865479 -0.0397249981760978699 0.0205220002681016922
-0.338541001081466675 -0.0394369997084140778 0.0199459996074438095
-0.339763998985290527 -0.0392209999263286591 0.0197299998253583908
-0.340770989656448364 -0.0396529994904994965 0.0210250001400709152
-0.341562986373901367 -0.0393650010228157043 0.0203779991716146469
-0.342786014080047607 -0.0392209999263286591 0.0201619993895292282
-0.343865007162094116 -0.0395089983940124512 0.0211689993739128113
-0.345304012298583984 -0.0390050001442432404 0.0200900007039308548
-0.346383005380630493 -0.0392209999263286591 0.0209529995918273926
-0.34738999605178833 -0.039581000804901123 0.0220320001244544983
-0.348756998777389526 -0.0392209999263286591 0.0213130004703998566
-0.349260002374649048 -0.0394369997084140778 0.0219609998166561127
-0.350410997867584229 -0.039581000804901123 0.0225360002368688583
-0.351705998182296753 -0.0392209999263286591 0.0218170005828142166
-0.352928996086120605 -0.0393650010228157043 0.022247999906539917
-0.353935986757278442 -0.0397249981760978699 0.0233270004391670227
-0.355302989482879639 -0.0394369997084140778 0.022752000018954277
-0.356525987386703491 -0.0392929986119270325 0.022608000785112381
-0.357030004262924194 -0.0394369997084140778 0.023112000897526741
-0.358325004577636719 -0.0392209999263286591 0.022752000018954277
-0.359548002481460571 -0.0391490012407302856 0.0226799994707107544
-0.360554993152618408 -0.0397959984838962555 0.0244069993495941162
-0.361921995878219604 -0.0392929986119270325 0.0233989991247653961
-0.363144993782043457 -0.0392929986119270325 0.0235430002212524414
-0.364152014255523682 -0.0397959984838962555 0.0249819997698068619
-0.364798992872238159 -0.039581000804901123 0.0245500002056360245
-0.366093993186950684 -0.0394369997084140778 0.0242630001157522202
-0.367172986268997192 -0.0399399995803833008 0.0256290007382631302
-0.368467986583709717 -0.039581000804901123 0.0249819997698068619
-0.369619011878967285 -0.0397959984838962555 0.0256290007382631302
-0.370770007371902466 -0.0399399995803833008 0.0261330008506774902
-0.371921002864837646 -0.0400840006768703461 0.0265650004148483276
-0.373288005590438843 -0.039581000804901123 0.0253420006483793259
-0.373791992664337158 -0.0399399995803833008 0.0264209993183612823
-0.375014990568161011 -0.0397959984838962555 0.0260610003024339676
-0.376237988471984863 -0.0397959984838962555 0.0262770000845193863
-0.37731701135635376 -0.0403000004589557648 0.0275720003992319107
-0.378612011671066284 -0.0399399995803833008 0.0267810001969337463
-0.379835009574890137 -0.0399399995803833008 0.026995999738574028
-0.380409985780715942 -0.0400840006768703461 0.0274279993027448654
-0.381704986095428467 -0.0397959984838962555 0.0267089996486902237
-0.382928013801574707 -0.0399399995803833008 0.0270680002868175507
-0.38415101170539856 -0.0397959984838962555 0.0267810001969337463
-0.38530200719833374 -0.0400119982659816742 0.0274999998509883881
-0.386525005102157593 -0.0399399995803833008 0.027356000617146492
-0.387748003005981445 -0.0400840006768703461 0.0277880001813173294
-0.388323992490768433 -0.0402280017733573914 0.0282189995050430298
-0.389546990394592285 -0.0399399995803833008 0.0276439990848302841
-0.390769988298416138 -0.0400119982659816742 0.0278600007295608521
-0.39199298620223999 -0.0398680008947849274 0.0274999998509883881
-0.39321601390838623 -0.0399399995803833008 0.0277880001813173294
-0.394439011812210083 -0.0400840006768703461 0.0281470008194446564
-0.395662009716033936 -0.0399399995803833008 0.0279319994151592255
-0.396885007619857788 -0.0397959984838962555 0.0274279993027448654
-0.397460013628005981 -0.0397249981760978699 0.0272840000689029694
-0.398683011531829834 -0.0401559993624687195 0.0285790003836154938
-0.399906009435653687 -0.0397959984838962555 0.0274999998509883881
-0.401129007339477539 -0.0398680008947849274 0.0278600007295608521
-0.402352005243301392 -0.0399399995803833008 0.0281470008194446564
-0.403575003147125244 -0.0399399995803833008 0.0280029997229576111
-0.404798001050949097 -0.0400119982659816742 0.0282910000532865524
-0.40537300705909729 -0.0400840006768703461 0.0284349992871284485
-0.406596004962921143 -0.0400119982659816742 0.0283630006015300751
-0.407819002866744995 -0.0403000004589557648 0.0291549991816282272
-0.409042000770568848 -0.0400119982659816742 0.0283630006015300751
-0.4102649986743927 -0.039581000804901123 0.0272840000689029694
-0.411487996578216553 -0.0403000004589557648 0.0290109999477863312
-0.412710994482040405 -0.0402280017733573914 0.0288670007139444351
-0.41328701376914978 -0.0400119982659816742 0.0283630006015300751
-0.414510011672973633 -0.0403719991445541382 0.0292980000376701355
-0.415733009576797485 -0.0403000004589557648 0.0291549991816282272
-0.416956007480621338 -0.0403719991445541382 0.0292259994894266129
-0.41817900538444519 -0.0403000004589557648 0.0290830004960298538
-0.419402003288269043 -0.0404440015554428101 0.0292980000376701355
-0.420625001192092896 -0.0401559993624687195 0.0286509990692138672
-0.421200007200241089 -0.0403719991445541382 0.0291549991816282272
-0.422423005104064941 -0.0403000004589557648 0.0288670007139444351
-0.423646003007888794 -0.0403719991445541382 0.0290830004960298538
-0.424941003322601318 -0.0406600013375282288 0.0297299996018409729
-0.426091998815536499 -0.0404440015554428101 0.0291549991816282272
-0.427314996719360352 -0.0403719991445541382 0.0289389993995428085
-0.428537994623184204 -0.0403000004589557648 0.0287229996174573898
-0.429185986518859863 -0.0405879989266395569 0.0293700005859136581
-0.430337011814117432 -0.0403719991445541382 0.0287950001657009125
-0.431632012128829956 -0.0404440015554428101 0.0290109999477863312
-0.432853996753692627 -0.0404440015554428101 0.0289389993995428085
-0.434006005525588989 -0.0400840006768703461 0.0279319994151592255
-0.435299992561340332 -0.0408760011196136475 0.0298740006983280182
-0.436522990465164185 -0.0407320000231266022 0.0293700005859136581
-0.43709900975227356 -0.0405879989266395569 0.0289389993995428085
-0.43825000524520874 -0.0402280017733573914 0.0279319994151592255
-0.439545005559921265 -0.0405879989266395569 0.0287950001657009125
-0.0736579969525337219 -0.0216680001467466354 -0.398241013288497925
-0.0737299993634223938 -0.0216680001467466354 -0.39766499400138855
-0.0742340013384819031 -0.0213799998164176941 -0.396586000919342041
-0.0729390010237693787 -0.0218109991401433945 -0.395651012659072876
-0.0738739967346191406 -0.0214520003646612167 -0.394428014755249023
-0.0733700022101402283 -0.0215959995985031128 -0.393420994281768799
-0.0734419971704483032 -0.0215240009129047394 -0.39234200119972229
-0.073586001992225647 -0.0214520003646612167 -0.391263008117675781
-0.0736579969525337219 -0.0213799998164176941 -0.390758991241455078
-0.0719320029020309448 -0.0219550002366304398 -0.389824002981185913
-0.0714280009269714355 -0.0221710000187158585 -0.388817012310028076
-0.0720760002732276917 -0.0218829996883869171 -0.387665987014770508
-0.0720760002732276917 -0.0218109991401433945 -0.386586993932723999
-0.0701330006122589111 -0.0225310008972883224 -0.385722994804382324
-0.0716440007090568542 -0.0219550002366304398 -0.384499996900558472
-0.0720039978623390198 -0.0218109991401433945 -0.383924990892410278
-0.071139998733997345 -0.0220989994704723358 -0.382918000221252441
-0.0715719982981681824 -0.0218829996883869171 -0.381837993860244751
-0.0700609982013702393 -0.0224590003490447998 -0.380831003189086914
-0.0712120011448860168 -0.0219550002366304398 -0.379680007696151733
-0.0715719982981681824 -0.0218109991401433945 -0.378601014614105225
-0.0709249973297119141 -0.0220270007848739624 -0.377593994140625
-0.0712120011448860168 -0.0219550002366304398 -0.377018988132476807
-0.0704210028052330017 -0.0221710000187158585 -0.376011013984680176
-0.0698449984192848206 -0.0223869998008012772 -0.374931991100311279
-0.0709249973297119141 -0.0219550002366304398 -0.373852998018264771
-0.0705650001764297485 -0.0220989994704723358 -0.372774004936218262
-0.0707809999585151672 -0.0219550002366304398 -0.371695011854171753
-0.0712840035557746887 -0.0218109991401433945 -0.370615988969802856
-0.0712840035557746887 -0.0218109991401433945 -0.370112001895904541
-0.0705650001764297485 -0.0220270007848739624 -0.369033008813858032
-0.0682630017399787903 -0.0228909999132156372 -0.368025988340377808
-0.0695580020546913147 -0.0223869998008012772 -0.366946995258331299
-0.0697019994258880615 -0.0223149992525577545 -0.36586800217628479
-0.0698449984192848206 -0.0223149992525577545 -0.364789009094238281
-0.0676869973540306091 -0.0231059994548559189 -0.364284992218017578
-0.067758999764919281 -0.0230340007692575455 -0.363205999135971069
-0.0696299970149993896 -0.0223149992525577545 -0.362127006053924561
-0.0689819976687431335 -0.0226029995828866959 -0.361048012971878052
-0.0696299970149993896 -0.0223149992525577545 -0.359968990087509155
-0.0773990005254745483 -0.0229630004614591599 -0.359176993370056152
-0.0784780010581016541 -0.0225310008972883224 -0.358098000288009644
-0.0784780010581016541 -0.0225310008972883224 -0.357091009616851807
-0.0778310000896453857 -0.0228189993649721146 -0.35601198673248291
-0.0774710029363632202 -0.0229630004614591599 -0.355004996061325073
-0.077615000307559967 -0.0228909999132156372 -0.353926002979278564
-0.0782620012760162354 -0.0226750001311302185 -0.353421986103057861
-0.0764639973640441895 -0.0233939997851848602 -0.352342993021011353
-0.0768240019679069519 -0.0232500005513429642 -0.351263999938964844
-0.0790539979934692383 -0.0223869998008012772 -0.350329011678695679
-0.0781190022826194763 -0.0227470006793737411 -0.349249988794326782
-0.0769670009613037109 -0.0232500005513429642 -0.348170995712280273
-0.0780469998717308044 -0.0228189993649721146 -0.347162991762161255
-0.0776870027184486389 -0.0229630004614591599 -0.346587985754013062
-0.0775429978966712952 -0.0230340007692575455 -0.345580995082855225
-0.0779030025005340576 -0.0228909999132156372 -0.344502002000808716
-0.0779030025005340576 -0.0228909999132156372 -0.343493998050689697
-0.0762479975819587708 -0.0236099995672702789 -0.342343002557754517
-0.0772550031542778015 -0.0232500005513429642 -0.34133601188659668
-0.0782620012760162354 -0.0228189993649721146 -0.340328991413116455
-0.079198002815246582 -0.0224590003490447998 -0.339897006750106812
-0.0786940008401870728 -0.0226750001311302185 -0.338818013668060303
-0.080132998526096344 -0.0221710000187158585 -0.33788299560546875
-0.0797730013728141785 -0.0223149992525577545 -0.336804002523422241
-0.0799890011548995972 -0.0222430005669593811 -0.335725009441375732
-0.0781899988651275635 -0.0230340007692575455 -0.334574013948440552
-0.0785500034689903259 -0.0228909999132156372 -0.333566993474960327
-0.0779030025005340576 -0.0231780000030994415 -0.33299100399017334
-0.0785500034689903259 -0.0229630004614591599 -0.331984013319015503
-0.0789100006222724915 -0.0228189993649721146 -0.330976992845535278
-0.0786219984292984009 -0.0230340007692575455 -0.32989799976348877
-0.0790539979934692383 -0.0228189993649721146 -0.328891009092330933
-0.0785500034689903259 -0.0231059994548559189 -0.327740013599395752
-0.0784780010581016541 -0.0231780000030994415 -0.326732009649276733
-0.0788379982113838196 -0.0230340007692575455 -0.326229006052017212
-0.0790539979934692383 -0.0230340007692575455 -0.325150012969970703
-0.0799169987440109253 -0.0226750001311302185 -0.32421499490737915
-0.0791260004043579102 -0.0230340007692575455 -0.32306399941444397
-0.0791260004043579102 -0.0231059994548559189 -0.322055995464324951
-0.0804210007190704346 -0.0226750001311302185 -0.321121007204055786
-0.0797730013728141785 -0.0229630004614591599 -0.319970011711120605
-0.079269997775554657 -0.0231780000030994415 -0.319395005702972412
-0.0789100006222724915 -0.0233939997851848602 -0.318316012620925903
-0.0795570015907287598 -0.0231780000030994415 -0.317308008670806885
-0.0804930031299591064 -0.0228189993649721146 -0.316372990608215332
-0.0791260004043579102 -0.0233939997851848602 -0.315149992704391479
-0.080995999276638031 -0.0227470006793737411 -0.314359009265899658
-0.0784780010581016541 -0.0238259993493556976 -0.31292000412940979
-0.0796289965510368347 -0.0233939997851848602 -0.312559992074966431
-0.0788379982113838196 -0.0237540006637573242 -0.31140899658203125
-0.0791260004043579102 -0.0236820001155138016 -0.310330003499984741
-0.0791260004043579102 -0.0237540006637573242 -0.309323012828826904
-0.0797009989619255066 -0.0236099995672702789 -0.30831599235534668
-0.0806360021233558655 -0.0232500005513429642 -0.307381004095077515
-0.0807079970836639404 -0.0233219992369413376 -0.306373000144958496
-0.080132998526096344 -0.0236099995672702789 -0.305725991725921631
-0.0793410018086433411 -0.0239700004458427429 -0.304502993822097778
-0.0802050009369850159 -0.0236820001155138016 -0.303568005561828613
-0.0820749998092651367 -0.0230340007692575455 -0.302848011255264282
-0.0816439986228942871 -0.0232500005513429642 -0.301696985960006714
-0.0806360021233558655 -0.0237540006637573242 -0.300473988056182861
-0.0810680016875267029 -0.0236099995672702789 -0.299466997385025024
-0.081716001033782959 -0.0233939997851848602 -0.299035996198654175
-0.0826509967446327209 -0.0231059994548559189 -0.2981719970703125
-0.0814279988408088684 -0.0236820001155138016 -0.296876996755599976
-0.0830819979310035706 -0.0231059994548559189 -0.296086013317108154
-0.083513997495174408 -0.0230340007692575455 -0.295150995254516602
-0.083442002534866333 -0.0231059994548559189 -0.294072002172470093
-0.083442002534866333 -0.0231780000030994415 -0.293496012687683105
-0.0838019996881484985 -0.0231059994548559189 -0.292488992214202881
-0.0842330008745193481 -0.0230340007692575455 -0.291554003953933716
-0.0831540003418922424 -0.0235380008816719055 -0.290259003639221191
-0.0841609984636306763 -0.0232500005513429642 -0.289395987987518311
-0.084376998245716095 -0.0232500005513429642 -0.28838801383972168
-0.08430500328540802 -0.0233219992369413376 -0.287308990955352783
-0.0839459970593452454 -0.0235380008816719055 -0.286662012338638306
-0.0845210030674934387 -0.0233939997851848602 -0.285726994276046753
-0.0840179994702339172 -0.0236820001155138016 -0.2845039963722229
-0.0835859999060630798 -0.0239700004458427429 -0.28335300087928772
-0.0842330008745193481 -0.0238259993493556976 -0.282416999340057373
-0.083513997495174408 -0.0241849999874830246 -0.28112301230430603
-0.0844490006566047668 -0.0238979998975992203 -0.280259013175964355
-0.0845929980278015137 -0.0238979998975992203 -0.279756009578704834
-0.0845210030674934387 -0.0239700004458427429 -0.278676986694335938
-0.0863920003175735474 -0.0233939997851848602 -0.278028994798660278
-0.08596000075340271 -0.0236099995672702789 -0.276877999305725098
-0.0846650004386901855 -0.0242570005357265472 -0.275438994169235229
-0.08596000075340271 -0.0238259993493556976 -0.274648010730743408
-0.0870390012860298157 -0.0235380008816719055 -0.273856997489929199
-0.0862480029463768005 -0.0239700004458427429 -0.272561997175216675
-0.0855280011892318726 -0.0243289992213249207 -0.271842002868652344
-0.0847370028495788574 -0.0247610006481409073 -0.270475000143051147
-0.0866789966821670532 -0.0240419991314411163 -0.269971996545791626
-0.0855280011892318726 -0.024616999551653862 -0.268532991409301758
-0.0864640027284622192 -0.0244009997695684433 -0.267670005559921265
-0.0849530026316642761 -0.025120999664068222 -0.266158998012542725
-0.0845210030674934387 -0.0254079997539520264 -0.264936000108718872
-0.0863199979066848755 -0.0247610006481409073 -0.2648639976978302
-0.0863920003175735474 -0.0248329993337392807 -0.263785004615783691
-0.0865349993109703064 -0.0249049998819828033 -0.262706011533737183
-0.0864640027284622192 -0.0250489991158246994 -0.261626988649368286
-0.0863920003175735474 -0.0251930002123117447 -0.260475993156433105
-0.0866789966821670532 -0.0251930002123117447 -0.259469002485275269
-0.0873270034790039062 -0.024977000430226326 -0.259108990430831909
-0.0862480029463768005 -0.0255520008504390717 -0.257598012685775757
-0.086823001503944397 -0.025480000302195549 -0.256662994623184204
-0.087543003261089325 -0.0253369994461536407 -0.255800008773803711
-0.0879020020365715027 -0.0253369994461536407 -0.254792988300323486
-0.0886939987540245056 -0.025120999664068222 -0.253928989171981812
-0.0894130021333694458 -0.024977000430226326 -0.253066003322601318
-0.0891249999403953552 -0.025120999664068222 -0.252418011426925659
-0.0897729992866516113 -0.024977000430226326 -0.251482993364334106
-0.0904200002551078796 -0.0249049998819828033 -0.250620007514953613
-0.0893409997224807739 -0.025480000302195549 -0.249108999967575073
-0.090851999819278717 -0.024977000430226326 -0.248462006449699402
-0.0899169966578483582 -0.0255520008504390717 -0.247023001313209534
-0.0910679996013641357 -0.0251930002123117447 -0.24630400538444519
-0.0895569995045661926 -0.0259119998663663864 -0.2452239990234375
-0.0897729992866516113 -0.0259119998663663864 -0.244145005941390991
-0.0914269983768463135 -0.0254079997539520264 -0.243569999933242798
-0.0919310003519058228 -0.0253369994461536407 -0.242634996771812439
-0.0914990007877349854 -0.0256960000842809677 -0.241339996457099915
-0.0919310003519058228 -0.0256960000842809677 -0.240333005785942078
-0.092506997287273407 -0.0255520008504390717 -0.239469006657600403
-0.0918589979410171509 -0.0259119998663663864 -0.238606005907058716
-0.0915710031986236572 -0.0262000001966953278 -0.237382993102073669
-0.0922190025448799133 -0.0261279996484518051 -0.236448004841804504
-0.0932260006666183472 -0.0258399993181228638 -0.235727995634078979
-0.093369998037815094 -0.0259119998663663864 -0.234649002552032471
-0.0943770036101341248 -0.0256960000842809677 -0.233858004212379456
-0.0946649983525276184 -0.0256960000842809677 -0.232850998640060425
-0.0938730016350746155 -0.0261279996484518051 -0.231915995478630066
-0.0927940011024475098 -0.0267750006169080734 -0.230333000421524048
-0.0939449965953826904 -0.0264880005270242691 -0.229614004492759705
-0.0956000015139579773 -0.0259119998663663864 -0.229182004928588867
-0.0957439988851547241 -0.0260559991002082825 -0.228030994534492493
-0.0968950018286705017 -0.0256960000842809677 -0.227383002638816833
-0.095816001296043396 -0.0263439994305372238 -0.225801005959510803
-0.0968229994177818298 -0.0260559991002082825 -0.225584998726844788
-0.0964630022644996643 -0.0263439994305372238 -0.224289998412132263
-0.0953119993209838867 -0.0270629990845918655 -0.222635000944137573
-0.0968229994177818298 -0.0265599992126226425 -0.222131997346878052
-0.0971829965710639954 -0.0266309995204210281 -0.221053004264831543
-0.0974700003862380981 -0.0267030000686645508 -0.220045998692512512
-0.0978299975395202637 -0.0266309995204210281 -0.219613999128341675
-0.0994850024580955505 -0.0261279996484518051 -0.219181999564170837
-0.100132003426551819 -0.0259840004146099091 -0.21831899881362915
-0.100203998386859894 -0.0261279996484518051 -0.21716800332069397
-0.100276000797748566 -0.0262720007449388504 -0.216016992926597595
-0.101355001330375671 -0.0260559991002082825 -0.215296998620033264
-0.101714998483657837 -0.0261279996484518051 -0.214289993047714233
-0.10157100111246109 -0.0262720007449388504 -0.213642999529838562
-0.102721996605396271 -0.0259119998663663864 -0.212994992733001709
-0.102505996823310852 -0.0262720007449388504 -0.211700007319450378
-0.10322599858045578 -0.0261279996484518051 -0.210837006568908691
-0.102218002080917358 -0.0267750006169080734 -0.209182992577552795
-0.104232996702194214 -0.0261279996484518051 -0.208967000246047974
-0.102937996387481689 -0.0268469993025064468 -0.207095995545387268
-0.103298000991344452 -0.0268469993025064468 -0.206664994359016418
-0.104377001523971558 -0.0265599992126226425 -0.206017002463340759
-0.10559999942779541 -0.0262720007449388504 -0.205441996455192566
-0.104879997670650482 -0.0267750006169080734 -0.203859001398086548
-0.106390997767448425 -0.0262720007449388504 -0.20342700183391571
-0.105742998421192169 -0.0268469993025064468 -0.20184500515460968
-0.107542000710964203 -0.0262720007449388504 -0.201628997921943665
-0.106463000178337097 -0.0268469993025064468 -0.200406000018119812
-0.106606997549533844 -0.0269910003989934921 -0.199327006936073303
-0.107830002903938293 -0.0267030000686645508 -0.198751002550125122
-0.107469998300075531 -0.0270629990845918655 -0.197311997413635254
-0.108116999268531799 -0.0269910003989934921 -0.196448996663093567
-0.106894999742507935 -0.0277820006012916565 -0.194507002830505371
-0.109627999365329742 -0.0267750006169080734 -0.194794997572898865
-0.108837001025676727 -0.0272790007293224335 -0.193715006113052368
-0.11077900230884552 -0.0266309995204210281 -0.193571999669075012
-0.11034800112247467 -0.0270629990845918655 -0.192132994532585144
-0.110850997269153595 -0.0270629990845918655 -0.191198006272315979
-0.111498996615409851 -0.0269910003989934921 -0.190262004733085632
-0.110995002090930939 -0.0274229999631643295 -0.18875199556350708
-0.112361997365951538 -0.0270629990845918655 -0.188247993588447571
-0.111354999244213104 -0.0276389997452497482 -0.18709699809551239
-0.111427001655101776 -0.0278539992868900299 -0.185874000191688538
-0.111498996615409851 -0.0280699990689754486 -0.184651002287864685
-0.112145997583866119 -0.0279980003833770752 -0.183788001537322998
-0.113440997898578644 -0.0277110002934932709 -0.183283999562263489
-0.112722001969814301 -0.0282860007137060165 -0.181557998061180115
-0.113585002720355988 -0.0281419996172189713 -0.180838003754615784
-0.113872997462749481 -0.0281419996172189713 -0.180335000157356262
-0.113440997898578644 -0.0285739991813898087 -0.178823992609977722
-0.115742996335029602 -0.0278539992868900299 -0.178895995020866394
-0.116534002125263214 -0.0277110002934932709 -0.178176000714302063
-0.116175003349781036 -0.0281419996172189713 -0.176666006445884705
-0.117398001253604889 -0.0278539992868900299 -0.176162004470825195
-0.116750001907348633 -0.02835799939930439 -0.174436002969741821
-0.115240000188350677 -0.029221000149846077 -0.172852993011474609
-0.117614001035690308 -0.02835799939930439 -0.173069000244140625
-0.118188999593257904 -0.02835799939930439 -0.172132998704910278
-0.119124002754688263 -0.0282140001654624939 -0.171414002776145935
-0.119411997497081757 -0.02835799939930439 -0.170334994792938232
-0.120419003069400787 -0.0282140001654624939 -0.169688001275062561
-0.119483999907970428 -0.0289340000599622726 -0.167744994163513184
-0.119915999472141266 -0.02886199951171875 -0.167384997010231018
-0.12164200097322464 -0.02835799939930439 -0.167170003056526184
-0.121569998562335968 -0.0286459997296333313 -0.165803000330924988
-0.121281996369361877 -0.0290770009160041809 -0.164291992783546448
-0.122648999094963074 -0.0287180002778768539 -0.163931995630264282
-0.122290000319480896 -0.0291489996016025543 -0.162349998950958252
-0.121785998344421387 -0.029725000262260437 -0.160695001482963562
-0.123080998659133911 -0.029221000149846077 -0.160910993814468384
-0.123512998223304749 -0.029364999383687973 -0.159832000732421875
-0.124448001384735107 -0.0291489996016025543 -0.159183993935585022
-0.124519996345043182 -0.0294369999319314957 -0.157888993620872498
-0.124950997531414032 -0.0295090004801750183 -0.156882002949714661
-0.125383004546165466 -0.0296529997140169144 -0.155802994966506958
-0.125887006521224976 -0.029725000262260437 -0.154796004295349121
-0.125815004110336304 -0.0299410000443458557 -0.154076993465423584
-0.126750007271766663 -0.029725000262260437 -0.153429001569747925
-0.1271820068359375 -0.0298689994961023331 -0.152349993586540222
-0.126893997192382812 -0.0303000006824731827 -0.150766998529434204
-0.128044992685317993 -0.0300849992781877518 -0.150263994932174683
-0.1277569979429245 -0.0305160004645586014 -0.148680999875068665
-0.128619998693466187 -0.0304439999163150787 -0.147890001535415649
-0.129628002643585205 -0.0300849992781877518 -0.147962003946304321
-0.129770994186401367 -0.0303719993680715561 -0.146667003631591797
-0.12890799343585968 -0.0310919992625713348 -0.144651994109153748
-0.129699006676673889 -0.0310919992625713348 -0.143860995769500732
-0.129628002643585205 -0.031451001763343811 -0.142422005534172058
-0.131497994065284729 -0.0308759994804859161 -0.142422005534172058
-0.130922004580497742 -0.031451001763343811 -0.14055199921131134
-0.132289007306098938 -0.0309480000287294388 -0.140911996364593506
-0.133009001612663269 -0.0309480000287294388 -0.140047997236251831
-0.132721006870269775 -0.031451001763343811 -0.138466000556945801
-0.132936999201774597 -0.0316670015454292297 -0.137171000242233276
-0.133799999952316284 -0.0315949991345405579 -0.136451005935668945
-0.135239005088806152 -0.0312360003590583801 -0.136163994669914246
-0.135095000267028809 -0.031451001763343811 -0.135299995541572571
-0.135670006275177002 -0.0315230004489421844 -0.134365007281303406
-0.13725300133228302 -0.0310919992625713348 -0.13414900004863739
-0.137325003743171692 -0.031451001763343811 -0.132781997323036194
-0.137757003307342529 -0.0315949991345405579 -0.131703004240989685
-0.138475999236106873 -0.0315949991345405579 -0.130840003490447998
-0.138548001646995544 -0.0318830013275146484 -0.129473000764846802
-0.138835996389389038 -0.0320990011096000671 -0.128250002861022949
-0.139195993542671204 -0.0320990011096000671 -0.127818003296852112
-0.140058994293212891 -0.0320269986987113953 -0.127099007368087769
-0.141712993383407593 -0.0315949991345405579 -0.127027004957199097
-0.143151998519897461 -0.0312360003590583801 -0.126810997724533081
-0.142288997769355774 -0.0320269986987113953 -0.124508999288082123
-0.142288997769355774 -0.0323869995772838593 -0.123070001602172852
-0.14250500500202179 -0.0326739996671676636 -0.121775999665260315
-0.143079996109008789 -0.0326020009815692902 -0.121559999883174896
-0.143079996109008789 -0.0329620018601417542 -0.119976997375488281
-0.143224000930786133 -0.0333219990134239197 -0.118610002100467682
-0.143800005316734314 -0.0333940014243125916 -0.117602996528148651
-0.144231006503105164 -0.0335379987955093384 -0.11645200103521347
-0.145238995552062988 -0.033466000109910965 -0.115804001688957214
-0.146821007132530212 -0.0329620018601417542 -0.115804001688957214
-0.146246001124382019 -0.0335379987955093384 -0.114437997341156006
-0.147541001439094543 -0.0332500003278255463 -0.11407800018787384
-0.148691996932029724 -0.0330340005457401276 -0.113646000623703003
-0.148476004600524902 -0.0335379987955093384 -0.111919999122619629
-0.147900000214576721 -0.034329000860452652 -0.109761998057365417
-0.148907005786895752 -0.0341849997639656067 -0.109113998711109161
-0.150058001279830933 -0.033968999981880188 -0.108681999146938324
-0.150130003690719604 -0.0341130010783672333 -0.107963003218173981
-0.151640996336936951 -0.0337539985775947571 -0.107818998396396637
-0.15214499831199646 -0.033968999981880188 -0.106739997863769531
-0.152289003133773804 -0.034329000860452652 -0.10530100017786026
-0.152503997087478638 -0.0346169993281364441 -0.103862002491950989
-0.152935996651649475 -0.0348329991102218628 -0.102710999548435211
-0.154302999377250671 -0.0345450006425380707 -0.10249599814414978
-0.154807001352310181 -0.0344729982316493988 -0.102136000990867615
-0.155597999691963196 -0.0344729982316493988 -0.1013450026512146
-0.15574200451374054 -0.0348329991102218628 -0.0999059975147247314
-0.156533002853393555 -0.0348329991102218628 -0.0991140007972717285
-0.155525997281074524 -0.0358400009572505951 -0.0963810011744499207
-0.156533002853393555 -0.0357679985463619232 -0.0957330018281936646
-0.157756000757217407 -0.0355519987642765045 -0.0953020006418228149
-0.157611995935440063 -0.0358400009572505951 -0.0943659991025924683
-0.157539993524551392 -0.0364149995148181915 -0.0925680026412010193
-0.159266993403434753 -0.0358400009572505951 -0.092784002423286438
-0.159483000636100769 -0.0362709984183311462 -0.0912730023264884949
-0.159483000636100769 -0.0367030017077922821 -0.089617997407913208
-0.16063399612903595 -0.0365590006113052368 -0.0891150012612342834
-0.16221599280834198 -0.0361279994249343872 -0.0891150012612342834
-0.161353006958961487 -0.0368469990789890289 -0.0873880013823509216
-0.162504002451896667 -0.0367030017077922821 -0.0868849977850914001
-0.163439005613327026 -0.0366309992969036102 -0.0861650034785270691
-0.164014995098114014 -0.0368469990789890289 -0.0850860029458999634
-0.164375007152557373 -0.0371350012719631195 -0.0837190002202987671
-0.165885001420974731 -0.0367030017077922821 -0.083791002631187439
-0.167035996913909912 -0.0365590006113052368 -0.0832879990339279175
-0.166244998574256897 -0.0372789986431598663 -0.0814889967441558838
-0.1673240065574646 -0.0372069999575614929 -0.0809139981865882874
-0.167395994067192078 -0.0376380011439323425 -0.0792590007185935974
-0.168907001614570618 -0.0372789986431598663 -0.0791869983077049255
-0.169914007186889648 -0.0372069999575614929 -0.0786829963326454163
-0.170057997107505798 -0.0376380011439323425 -0.0769570022821426392
-0.170993000268936157 -0.0375659987330436707 -0.0763090029358863831
-0.171569004654884338 -0.0375659987330436707 -0.0760940015316009521
-0.171569004654884338 -0.0380700007081031799 -0.0742949992418289185
-0.173151001334190369 -0.0376380011439323425 -0.0743670016527175903
-0.173510998487472534 -0.0379979982972145081 -0.072999998927116394
-0.174518004059791565 -0.0379259996116161346 -0.0723529979586601257
-0.175093993544578552 -0.0381419993937015533 -0.0712020024657249451
-0.176317006349563599 -0.0379259996116161346 -0.0708419978618621826
-0.17696399986743927 -0.0377819985151290894 -0.0706980004906654358
-0.177323997020721436 -0.0381419993937015533 -0.0693309977650642395
-0.177610993385314941 -0.038573000580072403 -0.0677490010857582092
-0.178834006190299988 -0.038357999175786972 -0.0674609988927841187
-0.179554000496864319 -0.0385020002722740173 -0.0664540007710456848
-0.1807049959897995 -0.038357999175786972 -0.0660220012068748474
-0.181495994329452515 -0.038357999175786972 -0.0651590004563331604
-0.181784003973007202 -0.038573000580072403 -0.0645110011100769043
-0.182647004723548889 -0.038573000580072403 -0.0637919977307319641
-0.183511003851890564 -0.038573000580072403 -0.063000999391078949
-0.183725997805595398 -0.0390769988298416138 -0.0612739995121955872
-0.185020998120307922 -0.0388609990477561951 -0.060986001044511795
-0.185741007328033447 -0.0389330014586448669 -0.060123000293970108
-0.186388000845909119 -0.0391490012407302856 -0.0589720010757446289
-0.186747997999191284 -0.0392209999263286591 -0.0584679991006851196
-0.187898993492126465 -0.0391490012407302856 -0.0580370016396045685
-0.188905999064445496 -0.0390769988298416138 -0.0573889985680580139
-0.189985007047653198 -0.0389330014586448669 -0.0569580011069774628
-0.190128996968269348 -0.0395089983940124512 -0.0550870001316070557
-0.191640004515647888 -0.0391490012407302856 -0.0551589988172054291
-0.19185599684715271 -0.0396529994904994965 -0.0534330010414123535
-0.192791000008583069 -0.0392929986119270325 -0.0537919998168945312
-0.193654000759124756 -0.0394369997084140778 -0.0528570003807544708
-0.194301992654800415 -0.0396529994904994965 -0.0517779998481273651
-0.195164993405342102 -0.0397249981760978699 -0.05098700150847435
-0.196388006210327148 -0.0395089983940124512 -0.050627000629901886
-0.197683006525039673 -0.0392929986119270325 -0.0504829995334148407
-0.197611004114151001 -0.0400119982659816742 -0.0482529997825622559
-0.198330000042915344 -0.0398680008947849274 -0.0482529997825622559
-0.199552997946739197 -0.0397249981760978699 -0.0479650013148784637
-0.199697002768516541 -0.0403000004589557648 -0.046023000031709671
-0.201279997825622559 -0.0398680008947849274 -0.0463100001215934753
-0.202070996165275574 -0.0400119982659816742 -0.045302998274564743
-0.203222006559371948 -0.0398680008947849274 -0.0449439994990825653
-0.204013004899024963 -0.0400119982659816742 -0.0440080016851425171
-0.205308005213737488 -0.0394369997084140778 -0.0448720008134841919
-0.205812007188796997 -0.0397959984838962555 -0.0435050018131732941
-0.207322999835014343 -0.0394369997084140778 -0.0436489991843700409
-0.207898005843162537 -0.0397249981760978699 -0.0422820001840591431
-0.208761006593704224 -0.0397959984838962555 -0.0415619984269142151
-0.209625005722045898 -0.0398680008947849274 -0.0406990014016628265
-0.210488006472587585 -0.0400119982659816742 -0.0398360006511211395
-0.210776001214981079 -0.0401559993624687195 -0.0391880013048648834
-0.212071001529693604 -0.0399399995803833008 -0.0390449985861778259
-0.213221997022628784 -0.0398680008947849274 -0.0386129990220069885
-0.213725000619888306 -0.0402280017733573914 -0.0371740013360977173
-0.215379998087882996 -0.0397249981760978699 -0.0376060009002685547
-0.215955004096031189 -0.0400840006768703461 -0.0363110005855560303
-0.217106997966766357 -0.0400119982659816742 -0.035806998610496521
-0.220487996935844421 -0.0377819985151290894 -0.0404830016195774078
-0.218400999903678894 -0.0401559993624687195 -0.0345840007066726685
-0.219409003853797913 -0.0401559993624687195 -0.0339369997382164001
-0.21976800262928009 -0.0406600013375282288 -0.0322099998593330383
-0.221567004919052124 -0.0400840006768703461 -0.0330020003020763397
-0.221782997250556946 -0.0407320000231266022 -0.0309149995446205139
-0.223436996340751648 -0.0402280017733573914 -0.0314910002052783966
-0.22350899875164032 -0.0405879989266395569 -0.0303399991244077682
-0.224444001913070679 -0.0406600013375282288 -0.0295480005443096161
-0.22502000629901886 -0.0410190001130104065 -0.0281099993735551834
-0.226098999381065369 -0.0410190001130104065 -0.027677999809384346
-0.227466002106666565 -0.0407320000231266022 -0.027677999809384346
-0.22825700044631958 -0.0409479998052120209 -0.0265989992767572403
-0.229552000761032104 -0.0407320000231266022 -0.0265270005911588669
-0.22991199791431427 -0.0408760011196136475 -0.0260230004787445068
-0.231279000639915466 -0.0406600013375282288 -0.0258799996227025986
-0.232069998979568481 -0.0408760011196136475 -0.0248719993978738785
-0.233149006962776184 -0.0408039987087249756 -0.0244410000741481781
-0.233869001269340515 -0.0410190001130104065 -0.023290000855922699
-0.234804004430770874 -0.0411630012094974518 -0.0224980004131793976
-0.23617100715637207 -0.0409479998052120209 -0.0224259998649358749
-0.235882997512817383 -0.0415950007736682892 -0.0206279996782541275
-0.237608999013900757 -0.0410190001130104065 -0.0213469993323087692
-0.238328993320465088 -0.0413790009915828705 -0.0201239995658397675
-0.239191994071006775 -0.0415229983627796173 -0.019189000129699707
-0.240343004465103149 -0.0414509996771812439 -0.0187570005655288696
-0.241566002368927002 -0.0413069985806941986 -0.0186139997094869614
-0.242429003119468689 -0.0415229983627796173 -0.0176059994846582413
-0.243796005845069885 -0.0412349998950958252 -0.01782199926674366
-0.244156002998352051 -0.0414509996771812439 -0.0170310009270906448
-0.245019003748893738 -0.0415950007736682892 -0.0161680001765489578
-0.246097996830940247 -0.0415950007736682892 -0.0156640000641345978
-0.247392997145652771 -0.0414509996771812439 -0.0155199998989701271
-0.248184993863105774 -0.0416669994592666626 -0.0143689997494220734
-0.249336004257202148 -0.0415950007736682892 -0.014008999802172184
-0.250414997339248657 -0.0415950007736682892 -0.013505999930202961
-0.251206010580062866 -0.0413790009915828705 -0.0138659998774528503
-0.252213001251220703 -0.0414509996771812439 -0.0130740003660321236
-0.253363996744155884 -0.0414509996771812439 -0.0127149997279047966
-0.254586994647979736 -0.0412349998950958252 -0.0125709995627403259
-0.255593985319137573 -0.0413790009915828705 -0.0118509996682405472
-0.25624200701713562 -0.0418110005557537079 -0.0104120001196861267
-0.257537007331848145 -0.0415950007736682892 -0.0104120001196861267
-0.257824987173080444 -0.0418110005557537079 -0.00954900030046701431
-0.258832007646560669 -0.0418829992413520813 -0.00897399988025426865
-0.260342001914978027 -0.0415229983627796173 -0.009332999587059021
-0.26113399863243103 -0.0418110005557537079 -0.00810999982059001923
-0.262356996536254883 -0.0416669994592666626 -0.0080380002036690712
-0.263435989618301392 -0.041738998144865036 -0.00746299978345632553
-0.264155000448226929 -0.0420989990234375 -0.00609599985182285309
-0.264946997165679932 -0.0418829992413520813 -0.00638400018215179443
-0.265810012817382812 -0.0421699993312358856 -0.00530500011518597603
-0.267033010721206665 -0.0420270003378391266 -0.00508899986743927002
-0.268400013446807861 -0.0418110005557537079 -0.00530500011518597603
-0.269551008939743042 -0.0416669994592666626 -0.00508899986743927002
-0.270846009254455566 -0.0415229983627796173 -0.00501699978485703468
-0.272069007158279419 -0.0414509996771812439 -0.00480100000277161598
-0.272644013166427612 -0.0413790009915828705 -0.00472899992018938065
-0.274010986089706421 -0.0410909987986087799 -0.00494500016793608665
-0.275090008974075317 -0.0410909987986087799 -0.00451300013810396194
-0.276241004467010498 -0.0410909987986087799 -0.00408199988305568695
-0.277464002370834351 -0.0410190001130104065 -0.00386600010097026825
-0.278759002685546875 -0.0408039987087249756 -0.00400999980047345161
-0.280054003000259399 -0.0405879989266395569 -0.00408199988305568695
-0.280557990074157715 -0.0406600013375282288 -0.00372199993580579758
-0.281565010547637939 -0.0407320000231266022 -0.00307499989867210388
-0.28300398588180542 -0.0404440015554428101 -0.00343400007113814354
-0.28422701358795166 -0.0403000004589557648 -0.00343400007113814354
-0.285521000623703003 -0.0400840006768703461 -0.00350599992088973522
-0.286529004573822021 -0.0401559993624687195 -0.00285899988375604153
-0.287680000066757202 -0.0401559993624687195 -0.00249899993650615215
-0.288327008485794067 -0.0400119982659816742 -0.00271499995142221451
-0.289909988641738892 -0.0395089983940124512 -0.00357800000347197056
-0.290701001882553101 -0.0398680008947849274 -0.0022829999215900898
-0.291707992553710938 -0.0400840006768703461 -0.00141999998595565557
-0.293002992868423462 -0.0397959984838962555 -0.00170799996703863144
-0.294297993183135986 -0.039581000804901123 -0.00185200001578778028
-0.295305013656616211 -0.0397249981760978699 -0.0010600000387057662
-0.296097010374069214 -0.0395089983940124512 -0.00156400003470480442
-0.297104001045227051 -0.0396529994904994965 -0.000771999999415129423
-0.298038989305496216 -0.0398680008947849274 0.000163000004249624908
-0.299190014600753784 -0.0398680008947849274 0.000449999992270022631
-0.300484985113143921 -0.0396529994904994965 0.000234999999520368874
-0.301708012819290161 -0.0395089983940124512 0.000234999999520368874
-0.303003013134002686 -0.0392929986119270325 1.89999991562217474e-05
-0.303290992975234985 -0.039581000804901123 0.00095399998826906085
-0.304441988468170166 -0.0396529994904994965 0.00145800004247575998
-0.305593013763427734 -0.0395089983940124512 0.00153000000864267349
-0.306816011667251587 -0.0394369997084140778 0.001601999974809587
-0.307606995105743408 -0.0398680008947849274 0.00304000009782612324
-0.309046000242233276 -0.0395089983940124512 0.00246499991044402122
-0.30990898609161377 -0.0399399995803833008 0.00383200007490813732
-0.310699999332427979 -0.039581000804901123 0.00311199994757771492
-0.311922997236251831 -0.0394369997084140778 0.00304000009782612324
-0.31293100118637085 -0.0397249981760978699 0.00397600000724196434
-0.314009994268417358 -0.0397959984838962555 0.0045509999617934227
-0.315160989761352539 -0.0397249981760978699 0.00469500012695789337
-0.316455990076065063 -0.0395089983940124512 0.00447899987921118736
-0.317463010549545288 -0.0397249981760978699 0.00534200016409158707
-0.317894011735916138 -0.0399399995803833008 0.00598999997600913048
-0.31911700963973999 -0.0398680008947849274 0.00598999997600913048
-0.320125013589859009 -0.0400840006768703461 0.00692499987781047821
-0.321563005447387695 -0.0395089983940124512 0.00577400019392371178
-0.322786003351211548 -0.0395089983940124512 0.00591799989342689514
-0.323722004890441895 -0.0397959984838962555 0.00699699996039271355
-0.325015991926193237 -0.0395089983940124512 0.00663700001314282417
-0.325592011213302612 -0.0395089983940124512 0.00678100017830729485
-0.326743006706237793 -0.039581000804901123 0.00714100012555718422
-0.327966004610061646 -0.0393650010228157043 0.00685299979522824287
-0.328972995281219482 -0.0397249981760978699 0.00807600002735853195
-0.330123990774154663 -0.0397249981760978699 0.00814799964427947998
-0.331346988677978516 -0.0395089983940124512 0.00800400041043758392
-0.332498013973236084 -0.0396529994904994965 0.008580000139772892
-0.332929998636245728 -0.0398680008947849274 0.00922700017690658569
-0.334369003772735596 -0.0392929986119270325 0.00814799964427947998
-0.335447996854782104 -0.0394369997084140778 0.00865199975669384003
-0.336598992347717285 -0.0394369997084140778 0.00886700022965669632
-0.337821990251541138 -0.0392929986119270325 0.0087959999218583107
-0.338685005903244019 -0.0398680008947849274 0.0105219995602965355
-0.339908003807067871 -0.0397249981760978699 0.0103059997782111168
-0.340627014636993408 -0.0395089983940124512 0.00994700007140636444
-0.341778010129928589 -0.039581000804901123 0.0102340001612901688
-0.343001008033752441 -0.0395089983940124512 0.0102340001612901688
-0.344224005937576294 -0.0392929986119270325 0.00987500045448541641
-0.345232009887695312 -0.0397249981760978699 0.0111699998378753662
-0.346311002969741821 -0.0397959984838962555 0.0116010000929236412
-0.347461998462677002 -0.0397959984838962555 0.0118169998750090599
-0.348684996366500854 -0.0397249981760978699 0.0117450002580881119
-0.34933200478553772 -0.0395089983940124512 0.0114569999277591705
-0.350338995456695557 -0.0399399995803833008 0.0126799996942281723
-0.351633995771408081 -0.0396529994904994965 0.0121050002053380013
-0.352784991264343262 -0.0397249981760978699 0.0125360004603862762
-0.353935986757278442 -0.0397249981760978699 0.0126080000773072243
-0.355159014463424683 -0.0395089983940124512 0.0122490003705024719
-0.355590999126434326 -0.0398680008947849274 0.013399999588727951
-0.356885999441146851 -0.0396529994904994965 0.0128960004076361656
-0.358036994934082031 -0.0397249981760978699 0.0131839998066425323
-0.359043985605239868 -0.0401559993624687195 0.0145509997382760048
-0.360338985919952393 -0.0398680008947849274 0.0139030003920197487
-0.361490011215209961 -0.0397959984838962555 0.0139750000089406967
-0.362641006708145142 -0.0399399995803833008 0.0144790001213550568
-0.363288998603820801 -0.0397959984838962555 0.0141909997910261154
-0.364439994096755981 -0.0397249981760978699 0.0141909997910261154
-0.365590989589691162 -0.0398680008947849274 0.0146230002865195274
-0.366813987493515015 -0.0398680008947849274 0.0147670004516839981
-0.367965012788772583 -0.0398680008947849274 0.0149100003764033318
-0.369188010692596436 -0.0397249981760978699 0.0146230002865195274
-0.370267003774642944 -0.0399399995803833008 0.0154139995574951172
-0.371562004089355469 -0.0396529994904994965 0.0146949999034404755
-0.37206500768661499 -0.0397249981760978699 0.0150539996102452278
-0.373216003179550171 -0.0398680008947849274 0.0155579997226595879
-0.374439001083374023 -0.0397249981760978699 0.0152700003236532211
-0.375589996576309204 -0.0398680008947849274 0.0157740004360675812
-0.376668989658355713 -0.0402280017733573914 0.0167089998722076416
-0.377963989973068237 -0.0397959984838962555 0.0157740004360675812
-0.379114985466003418 -0.0398680008947849274 0.0159900002181529999
-0.379691004753112793 -0.0400840006768703461 0.0167089998722076416
-0.380986005067825317 -0.039581000804901123 0.0154860001057386398
-0.382064998149871826 -0.0400119982659816742 0.016636999323964119
-0.383287996053695679 -0.0398680008947849274 0.0164209995418787003
-0.384438991546630859 -0.0397959984838962555 0.0162770003080368042
-0.38558998703956604 -0.0401559993624687195 0.0172840002924203873
-0.38681301474571228 -0.0397249981760978699 0.0162770003080368042
-0.387387990951538086 -0.0400840006768703461 0.017140999436378479
-0.388538986444473267 -0.0400119982659816742 0.0170690007507801056
-0.389762014150619507 -0.0396529994904994965 0.0162049997597932816
-0.390913009643554688 -0.0398680008947849274 0.0169249996542930603
-0.39213600754737854 -0.0400119982659816742 0.0172840002924203873
-0.393287986516952515 -0.0398680008947849274 0.0169249996542930603
-0.394439011812210083 -0.0400840006768703461 0.017500000074505806
-0.395085990428924561 -0.0400119982659816742 0.0173560008406639099
-0.396236985921859741 -0.0400840006768703461 0.0177159998565912247
-0.397460013628005981 -0.0400840006768703461 0.017643999308347702
-0.398611009120941162 -0.0402280017733573914 0.0180760007351636887
-0.399762004613876343 -0.0400119982659816742 0.0175720006227493286
-0.400985002517700195 -0.0403000004589557648 0.0182920005172491074
-0.402135998010635376 -0.0404440015554428101 0.0187229998409748077
-0.402711987495422363 -0.0403719991445541382 0.0185790006071329117
-0.403934985399246216 -0.0401559993624687195 0.0180760007351636887
-0.405086010694503784 -0.0403000004589557648 0.0183639992028474808
-0.406309008598327637 -0.0402280017733573914 0.0182199999690055847
-0.407460004091262817 -0.0403000004589557648 0.0183639992028474808
-0.40868300199508667 -0.0402280017733573914 0.0182199999690055847
-0.409833997488021851 -0.0403000004589557648 0.0183639992028474808
-0.410481005907058716 -0.0401559993624687195 0.0181479994207620621
-0.411632001399993896 -0.0407320000231266022 0.0195870008319616318
-0.412854999303817749 -0.0406600013375282288 0.0192990005016326904
-0.41400599479675293 -0.0403000004589557648 0.018507000058889389
-0.415228992700576782 -0.0405879989266395569 0.0191549994051456451
-0.416379988193511963 -0.0404440015554428101 0.0188669990748167038
-0.417602986097335815 -0.0404440015554428101 0.0188669990748167038
-0.41817900538444519 -0.0405879989266395569 0.0190830007195472717
-0.419330000877380371 -0.0403000004589557648 0.0184349995106458664
-0.420552998781204224 -0.0408760011196136475 0.0197299998253583908
-0.421703994274139404 -0.0403000004589557648 0.0183639992028474808
-0.422998994588851929 -0.0409479998052120209 0.0199459996074438095
-0.424077987670898438 -0.0404440015554428101 0.0185790006071329117
-0.42530098557472229 -0.0406600013375282288 0.0190110001713037491
-0.426452010869979858 -0.0402280017733573914 0.0179319996386766434
-0.427098989486694336 -0.0404440015554428101 0.0184349995106458664
-0.428321987390518188 -0.0408760011196136475 0.0195870008319616318
-0.429544985294342041 -0.0409479998052120209 0.0196579992771148682
-0.430696010589599609 -0.0408760011196136475 0.0194429997354745865
-0.431919008493423462 -0.0408760011196136475 0.0192990005016326904
-0.433070003986358643 -0.0408039987087249756 0.0190830007195472717
-0.434293001890182495 -0.0410909987986087799 0.0198020003736019135
-0.434868991374969482 -0.0408039987087249756 0.0189389996230602264
-0.436091989278793335 -0.0409479998052120209 0.0192990005016326904
-0.437243014574050903 -0.0406600013375282288 0.018507000058889389
-0.438466012477874756 -0.0409479998052120209 0.0190830007195472717
-0.439545005559921265 -0.0405160002410411835 0.0179319996386766434
-0.0822909995913505554 -0.0219550002366304398 -0.398528993129730225
-0.0823630020022392273 -0.0218829996883869171 -0.397520989179611206
-0.0817869976162910461 -0.0220989994704723358 -0.396513998508453369
-0.0812840014696121216 -0.0222430005669593811 -0.395507007837295532
-0.081716001033782959 -0.0220270007848739624 -0.394428014755249023
-0.081716001033782959 -0.0219550002366304398 -0.393420994281768799
-0.0815720036625862122 -0.0220270007848739624 -0.392917007207870483
-0.0806360021233558655 -0.0223149992525577545 -0.391909986734390259
