ply
format ascii 1.0
element vertex 720
comment vertices
property float x
property float y
property float z
end_header
-0.203837007284164429 -0.00167400005739182234 -0.0917719975113868713
-0.198823004961013794 -0.00203899992629885674 -0.0921370014548301697
-0.194812998175621033 -0.00231199990957975388 -0.0916810035705566406
-0.192625001072883606 -0.00240299990400671959 -0.0894929990172386169
-0.190163999795913696 -0.00240299990400671959 -0.087578997015953064
-0.184147000312805176 -0.00313300010748207569 -0.090861000120639801
-0.0735739991068840027 -0.0180820003151893616 -0.182565003633499146
-0.073756001889705658 -0.0178089998662471771 -0.177733004093170166
-0.0733010023832321167 -0.0175349991768598557 -0.173539996147155762
-0.072114996612071991 -0.0173530001193284988 -0.169893994927406311
-0.0713860020041465759 -0.0171709991991519928 -0.165974006056785583
-0.0712039992213249207 -0.0168970003724098206 -0.161506995558738708
-0.0714770033955574036 -0.0167149994522333145 -0.159045994281768799
-0.07092999666929245 -0.0164410006254911423 -0.154944002628326416
-0.0782229974865913391 -0.0151650002226233482 -0.144370004534721375
-0.0797730013728141785 -0.0147089995443820953 -0.138626992702484131
-0.0797730013728141785 -0.0143449995666742325 -0.134250998497009277
-0.0799549967050552368 -0.0140709998086094856 -0.129693999886512756
-0.0830539986491203308 -0.0135239996016025543 -0.12504500150680542
-0.088432997465133667 -0.0125219998881220818 -0.116384997963905334
-0.0876120030879974365 -0.0123389996588230133 -0.112737998366355896
-0.0826900005340576172 -0.0127039998769760132 -0.112374000251293182
-0.0786790028214454651 -0.0129770003259181976 -0.111189000308513641
-0.0776759982109069824 -0.0127950003370642662 -0.107725001871585846
-0.0781320035457611084 -0.0125219998881220818 -0.10307600349187851
-0.0839660018682479858 -0.0116100003942847252 -0.0964210033416748047
-0.078496001660823822 -0.0120660001412034035 -0.0964210033416748047
-0.0762180015444755554 -0.0120660001412034035 -0.093960002064704895
-0.073026999831199646 -0.0122480001300573349 -0.0921370014548301697
-0.0678310021758079529 -0.0126130003482103348 -0.091862998902797699
-0.0606300011277198792 -0.0133419996127486229 -0.0931399986147880554
-0.0609939992427825928 -0.0129770003259181976 -0.0885820016264915466
-0.0599920004606246948 -0.0129770003259181976 -0.0872140005230903625
-0.0557980015873908997 -0.0132510000839829445 -0.086121000349521637
0.0205910000950098038 -0.0229139998555183411 -0.137897998094558716
0.0268810000270605087 -0.0234609991312026978 -0.137897998094558716
0.0298890005797147751 -0.0235520005226135254 -0.135527998208999634
0.0323499999940395355 -0.0236430000513792038 -0.132792994379997253
0.0359960012137889862 -0.0238249991089105606 -0.130787000060081482
0.0378200002014636993 -0.0239160005003213882 -0.129876002669334412
0.0424689985811710358 -0.0241899993270635605 -0.128600001335144043
0.0447480008006095886 -0.0241899993270635605 -0.125682994723320007
0.0519490018486976624 -0.0248279999941587448 -0.126138001680374146
0.0519490018486976624 -0.0246459990739822388 -0.121581003069877625
0.0493049994111061096 -0.0240070000290870667 -0.115290999412536621
0.0474819988012313843 -0.0236430000513792038 -0.111827000975608826
0.0472999997437000275 -0.0233689993619918823 -0.107178002595901489
0.0547749996185302734 -0.0240070000290870667 -0.107816003262996674
0.0617940016090869904 -0.0246459990739822388 -0.10808899998664856
0.0679930001497268677 -0.0251919999718666077 -0.107634000480175018
0.0761969983577728271 -0.0259220004081726074 -0.108635999262332916
0.0787490010261535645 -0.0260129999369382858 -0.105810001492500305
0.0778369978070259094 -0.0257389992475509644 -0.102985002100467682
0.0782930031418800354 -0.0255570001900196075 -0.0987910032272338867
0.0791139975190162659 -0.0253749992698431015 -0.0948719978332519531
0.0794780030846595764 -0.0251919999718666077 -0.0905869975686073303
0.0866800025105476379 -0.025831000879406929 -0.0907699987292289734
0.0944280028343200684 -0.0265599992126226425 -0.0912249982357025146
0.101811997592449188 -0.0271979998797178268 -0.0914079993963241577
0.10828399658203125 -0.0279270000755786896 -0.0932310000061988831
0.114665001630783081 -0.0283829998224973679 -0.0926840007305145264
0.123598001897335052 -0.0292949993163347244 -0.0936869978904724121
0.130707994103431702 -0.0299329999834299088 -0.093503996729850769
0.143562003970146179 -0.0312089994549751282 -0.0967859998345375061
0.206551000475883484 -0.0386839993298053741 -0.130331993103027344
0.20791800320148468 -0.0386839993298053741 -0.128782004117965698
0.211473003029823303 -0.038865998387336731 -0.126047000288963318
0.215483993291854858 -0.0391389988362789154 -0.123585999011993408
0.220679998397827148 -0.0395039990544319153 -0.12185399979352951
0.225967004895210266 -0.0398689992725849152 -0.120030999183654785
0.228883996605873108 -0.0399600006639957428 -0.116931997239589691
0.231892004609107971 -0.040050998330116272 -0.113831996917724609
0.233532994985580444 -0.0401419997215270996 -0.112374000251293182
0.236906006932258606 -0.0403250008821487427 -0.109457001090049744
0.239457994699478149 -0.0403250008821487427 -0.106083996593952179
0.242467001080513 -0.0405069999396800995 -0.102985002100467682
0.245110005140304565 -0.0405069999396800995 -0.0996119976043701172
0.247298002243041992 -0.0405980013310909271 -0.0960569977760314941
0.251127004623413086 -0.0407800003886222839 -0.0933220013976097107
0.253587990999221802 -0.040963001549243927 -0.0922280028462409973
0.25504601001739502 -0.0408710017800331116 -0.0883079990744590759
0.258965998888015747 -0.0411450006067752838 -0.0856650024652481079
0.261153995990753174 -0.0411450006067752838 -0.0820190012454986572
0.265255987644195557 -0.0413269996643066406 -0.0793749988079071045
0.266075998544692993 -0.041235998272895813 -0.0749989971518516541
0.271546006202697754 -0.0416919998824596405 -0.0731759965419769287
0.273550987243652344 -0.0417830012738704681 -0.0718090012669563293
0.276104003190994263 -0.0418739989399909973 -0.0683450028300285339
0.27920299768447876 -0.041965000331401825 -0.0651549994945526123
0.281572997570037842 -0.0420560017228126526 -0.0615990012884140015
0.285948008298873901 -0.0423300005495548248 -0.0590469986200332642
0.286404013633728027 -0.042148001492023468 -0.0544890016317367554
0.28959500789642334 -0.0423300005495548248 -0.0513899996876716614
0.196159005165100098 -0.0311179999262094498 0.00184599997010082006
0.197071000933647156 -0.0310270003974437714 0.00576499989256262779
0.197616994380950928 -0.0308439992368221283 0.00986700039356946945
0.30664101243019104 -0.043333001434803009 -0.0382630005478858948
0.244380995631217957 -0.0357670001685619354 -0.0016179999802261591
0.24301399290561676 -0.0354019999504089355 0.00357800000347197056
0.269905000925064087 -0.0383189991116523743 -0.00453499983996152878
0.320131987333297729 -0.0438800007104873657 -0.0233139991760253906
0.321772992610931396 -0.0438800007104873657 -0.0193029996007680893
0.324871987104415894 -0.0440619997680187225 -0.0159300006926059723
0.326786994934082031 -0.0440619997680187225 -0.0121010001748800278
0.328063011169433594 -0.0440619997680187225 -0.0102779995650053024
0.329613000154495239 -0.0440619997680187225 -0.0062669999897480011
0.334535002708435059 -0.0444269999861717224 -0.00371500011533498764
0.337269991636276245 -0.04451800137758255 -0.00025099999038502574
0.244016006588935852 -0.0335789993405342102 0.0495209991931915283
0.244745999574661255 -0.033488001674413681 0.0535320006310939789
0.246295005083084106 -0.0335789993405342102 0.0549900010228157043
0.267899006605148315 -0.0358580015599727631 0.0502500012516975403
0.352127999067306519 -0.0451559983193874359 0.01934799924492836
0.355410009622573853 -0.0453380011022090912 0.0226290002465248108
0.270633995532989502 -0.0354019999504089355 0.0666579976677894592
0.275920987129211426 -0.0359489992260932922 0.0666579976677894592
0.274372011423110962 -0.0355839990079402924 0.071671999990940094
0.368353992700576782 -0.0459760017693042755 0.0385820008814334869
0.370997995138168335 -0.0460669994354248047 0.0422279983758926392
0.374462008476257324 -0.0463409982621669769 0.0456009991466999054
0.377196013927459717 -0.0464319996535778046 0.0492470003664493561
0.379474997520446777 -0.0465230010449886322 0.0530759990215301514
0.382575005292892456 -0.0467969998717308044 0.0541700012981891632
0.383668988943099976 -0.046705000102519989 0.0584539994597434998
0.387223988771438599 -0.0469789989292621613 0.061827000230550766
0.390141010284423828 -0.0470700003206729889 0.0654729977250099182
0.392693012952804565 -0.0472519993782043457 0.0692109987139701843
0.397888988256454468 -0.0476169995963573456 0.0720359981060028076
0.398891985416412354 -0.0476169995963573456 0.0763209983706474304
0.399985998868942261 -0.0476169995963573456 0.078326001763343811
0.403176009654998779 -0.0477989986538887024 0.0818810015916824341
0.405364006757736206 -0.0478909984230995178 0.0858009979128837585
0.408006995916366577 -0.0479819998145103455 0.0895389989018440247
0.410923987627029419 -0.0481639988720417023 0.0931850001215934753
0.412564992904663086 -0.0481639988720417023 0.0973780006170272827
0.414662003517150879 -0.0483460016548633575 0.0989279970526695251
0.416029006242752075 -0.0483460016548633575 0.10321199893951416
0.415937989950180054 -0.0481639988720417023 0.107860997319221497
0.419584006071090698 -0.0484369993209838867 0.11141599714756012
0.42250099778175354 -0.0486200004816055298 0.11506199836730957
0.424142003059387207 -0.0486200004816055298 0.119255997240543365
0.424870997667312622 -0.0485289990901947021 0.123722001910209656
0.427240997552871704 -0.048710998147726059 0.125272005796432495
0.430797010660171509 -0.0489839985966682434 0.128827005624771118
0.433349013328552246 -0.0491669997572898865 0.132655993103981018
0.435719013214111328 -0.0492580011487007141 0.136666998267173767
0.436630994081497192 -0.0491669997572898865 0.141041994094848633
0.443194001913070679 -0.0498050004243850708 0.143685996532440186
0.441462010145187378 -0.0494400002062320709 0.148882001638412476
0.446110993623733521 -0.0498960018157958984 0.149884000420570374
0.444561004638671875 -0.049623001366853714 0.154989004135131836
0.449301004409790039 -0.0499869994819164276 0.158270999789237976
0.452582985162734985 -0.0501689985394477844 0.162008002400398254
0.455408990383148193 -0.0503519997000694275 0.165928006172180176
0.461881011724472046 -0.0508989989757537842 0.16875399649143219
0.465526998043060303 -0.0511719994246959686 0.172490999102592468
0.46571001410484314 -0.0511719994246959686 0.174769997596740723
0.465526998043060303 -0.0509900003671646118 0.179509997367858887
0.458781987428665161 -0.0501689985394477844 0.185982003808021545
0.456959009170532227 -0.0498050004243850708 0.191086992621421814
0.455590993165969849 -0.0495310015976428986 0.196009993553161621
0.457231998443603516 -0.049623001366853714 0.200294002890586853
0.454679995775222778 -0.0492580011487007141 0.203210994601249695
0.456593990325927734 -0.0493489988148212433 0.207313001155853271
0.454497009515762329 -0.0490759983658790588 0.212509006261825562
0.455774009227752686 -0.0490759983658790588 0.2167930006980896
0.452764987945556641 -0.0486200004816055298 0.222081005573272705
0.453767985105514526 -0.0486200004816055298 0.226365000009536743
0.454223990440368652 -0.0485289990901947021 0.230831995606422424
0.454405993223190308 -0.0485289990901947021 0.233109995722770691
0.453586012125015259 -0.0483460016548633575 0.237850993871688843
0.452674001455307007 -0.0481639988720417023 0.242590993642807007
0.453586012125015259 -0.0481639988720417023 0.246966004371643066
0.453130006790161133 -0.0479819998145103455 0.251614987850189209
0.451945006847381592 -0.0477080009877681732 0.256354987621307373
0.452856987714767456 -0.0477080009877681732 0.260731011629104614
0.453676998615264893 -0.0477989986538887024 0.26282799243927002
0.4547710120677948 -0.0477989986538887024 0.267111986875534058
0.4515799880027771 -0.0473439991474151611 0.272217005491256714
0.453494995832443237 -0.0475259982049465179 0.276318997144699097
0.454405993223190308 -0.0475259982049465179 0.280694007873535156
0.452674001455307007 -0.0472519993782043457 0.285526007413864136
0.450304001569747925 -0.0468880012631416321 0.288260012865066528
0.449665993452072144 -0.0467969998717308044 0.292818009853363037
0.448208004236221313 -0.0465230010449886322 0.297558009624481201
0.451124995946884155 -0.046705000102519989 0.301477998495101929
0.450760006904602051 -0.0466139987111091614 0.306035995483398438
0.452674001455307007 -0.046705000102519989 0.31013798713684082
0.450394988059997559 -0.0464319996535778046 0.314969003200531006
0.450031012296676636 -0.0463409982621669769 0.317247986793518066
0.450942009687423706 -0.0463409982621669769 0.321532994508743286
0.452856987714767456 -0.0465230010449886322 0.325634986162185669
0.454315006732940674 -0.0466139987111091614 0.329919010400772095
0.454315006732940674 -0.0465230010449886322 0.334295004606246948
0.454041987657546997 -0.0464319996535778046 0.338761001825332642
0.454133003950119019 -0.0463409982621669769 0.343228012323379517
0.453949987888336182 -0.0462500005960464478 0.345416009426116943
0.453859001398086548 -0.0462500005960464478 0.349882006645202637
0.453949987888336182 -0.0461589992046356201 0.35425800085067749
0.454405993223190308 -0.0461589992046356201 0.35863301157951355
0.454861998558044434 -0.0461589992046356201 0.363009005784988403
0.453767985105514526 -0.0459760017693042755 0.367567002773284912
0.452764987945556641 -0.0457939989864826202 0.372124999761581421
0.451945006847381592 -0.0457030013203620911 0.374404013156890869
0.45103299617767334 -0.045520000159740448 0.378960996866226196
0.450668990612030029 -0.0454289987683296204 0.38333699107170105
0.452491998672485352 -0.045520000159740448 0.387529999017715454
0.450850993394851685 -0.0453380011022090912 0.392087996006011963
0.45185399055480957 -0.0454289987683296204 0.396371990442276001
0.464433014392852783 -0.0466139987111091614 0.399379998445510864
0.479748010635375977 -0.0482550002634525299 0.39983600378036499
-0.417416989803314209 0.00871799979358911514 -0.0867590010166168213
-0.415046989917755127 0.00862700026482343674 -0.0857559964060783386
-0.411765992641448975 0.00844400003552436829 -0.0856650024652481079
-0.409031003713607788 0.00817099958658218384 -0.0870319977402687073
-0.40565800666809082 0.00789699982851743698 -0.0870319977402687073
-0.402011990547180176 0.00762399984523653984 -0.0873970016837120056
-0.399094998836517334 0.00744199985638260841 -0.0868500024080276489
-0.395630985498428345 0.00716800009831786156 -0.0870319977402687073
-0.392439991235733032 0.00698600010946393013 -0.0867590010166168213
-0.389250010251998901 0.0068040001206099987 -0.0864849984645843506
-0.386242002248764038 0.00643899990245699883 -0.0879440009593963623
-0.382503986358642578 0.00616500014439225197 -0.0883079990744590759
-0.378948986530303955 0.00589200016111135483 -0.0883999988436698914
-0.376578986644744873 0.00580100016668438911 -0.0871229991316795349
-0.372020989656448364 0.00534499995410442352 -0.0883999988436698914
-0.368831008672714233 0.0051629999652504921 -0.0880350023508071899
-0.364273011684417725 0.00479800021275877953 -0.0891290009021759033
-0.363635003566741943 0.00479800021275877953 -0.0878529995679855347
-0.359077006578445435 0.00443299999460577965 -0.0889459997415542603
-0.354337006807327271 0.00388700002804398537 -0.0902229994535446167
-0.351601988077163696 0.00379500002600252628 -0.0893110036849975586
-0.346679985523223877 0.00334000005386769772 -0.090677998960018158
-0.343854010105133057 0.00324800005182623863 -0.08967600017786026
-0.340571999549865723 0.00279300007969141006 -0.0913169980049133301
-0.338201999664306641 0.00279300007969141006 -0.0898580029606819153
-0.333461999893188477 0.00233700009994208813 -0.0909520015120506287
-0.330545008182525635 0.0021550001110881567 -0.0900399982929229736
-0.325623005628585815 0.00169900001492351294 -0.0913169980049133301
-0.322979003190994263 0.00160800002049654722 -0.0901319980621337891
-0.318057000637054443 0.00115200004074722528 -0.0912249982357025146
-0.316415995359420776 0.00106100004632025957 -0.0909520015120506287
-0.312130987644195557 0.000696000002790242434 -0.0914079993963241577
-0.3084850013256073 0.000422999990405514836 -0.091133996844291687
-0.303198009729385376 -0.000123999998322688043 -0.0925929993391036987
-0.301100999116897583 -0.000123999998322688043 -0.0907699987292289734
-0.295358002185821533 -0.000670999987050890923 -0.0925929993391036987
-0.292988002300262451 -0.000944999977946281433 -0.0930489972233772278
-0.289068996906280518 -0.00121799996122717857 -0.0929569974541664124
-0.285331010818481445 -0.00149199995212256908 -0.0925929993391036987
-0.280773013830184937 -0.00185600004624575377 -0.0931399986147880554
-0.277673989534378052 -0.00203899992629885674 -0.0921370014548301697
-0.272204995155334473 -0.00258599990047514439 -0.0935949981212615967
-0.269378989934921265 -0.0026769998949021101 -0.0922280028462409973
-0.266826003789901733 -0.00295000011101365089 -0.092775002121925354
-0.26153901219367981 -0.00349700008518993855 -0.0938690006732940674
-0.256889998912811279 -0.00386200007051229477 -0.0942339971661567688
-0.253244012594223022 -0.00413500005379319191 -0.0937779992818832397
-0.24868600070476532 -0.00449999980628490448 -0.0940510034561157227
-0.244311004877090454 -0.00486500002443790436 -0.0941419973969459534
-0.240664005279541016 -0.0051380000077188015 -0.093503996729850769
-0.237382993102073669 -0.00541099999099969864 -0.0945070013403892517
-0.232369005680084229 -0.00595800019800662994 -0.0952360033988952637
-0.227901995182037354 -0.00632299995049834251 -0.0952360033988952637
-0.222979992628097534 -0.00668800016865134239 -0.0957830026745796204
-0.219151005148887634 -0.00696100015193223953 -0.095145002007484436
-0.214502006769180298 -0.00741699989885091782 -0.0953269973397254944
-0.210126996040344238 -0.00768999988213181496 -0.095145002007484436
-0.206297993659973145 -0.00814600009471178055 -0.0966039970517158508
-0.20256100594997406 -0.0084199998527765274 -0.0958739966154098511
-0.196726992726325989 -0.00896700005978345871 -0.0969680026173591614
-0.191804006695747375 -0.00942199956625699997 -0.0972419977188110352
-0.187428995966911316 -0.00969600025564432144 -0.0969680026173591614
-0.187337994575500488 -0.00942199956625699997 -0.0929569974541664124
-0.184967994689941406 -0.00969600025564432144 -0.0930489972233772278
-0.0707480013370513916 -0.0261039994657039642 -0.18730500340461731
-0.0702920034527778625 -0.025831000879406929 -0.183110997080802917
-0.069927997887134552 -0.0255570001900196075 -0.178827002644538879
-0.0688339993357658386 -0.0253749992698431015 -0.174998000264167786
-0.0683780014514923096 -0.0251010004431009293 -0.170805007219314575
-0.0686519965529441833 -0.0247370004653930664 -0.166065007448196411
-0.0676489993929862976 -0.0247370004653930664 -0.164607003331184387
-0.0677400007843971252 -0.0243720002472400665 -0.159958004951477051
-0.0669199973344802856 -0.0241899993270635605 -0.156129002571105957
-0.0767640024423599243 -0.0224580001085996628 -0.14354899525642395
-0.07612600177526474 -0.0221839994192123413 -0.13963000476360321
-0.075396999716758728 -0.0220020003616809845 -0.135801002383232117
-0.0762180015444755554 -0.0216370001435279846 -0.130787000060081482
-0.0827810019254684448 -0.020542999729514122 -0.123313002288341522
-0.0822340026497840881 -0.0202699992805719376 -0.119392998516559601
-0.0814130008220672607 -0.0200880002230405807 -0.11574699729681015
-0.0815960019826889038 -0.0198139995336532593 -0.111371003091335297
-0.073939003050327301 -0.020542999729514122 -0.113012000918388367
-0.0733919963240623474 -0.0203610006719827652 -0.109091997146606445
-0.0731180012226104736 -0.0200880002230405807 -0.105172000825405121
-0.0771289989352226257 -0.019357999786734581 -0.0999760031700134277
-0.0714770033955574036 -0.0199050009250640869 -0.0999760031700134277
-0.0702920034527778625 -0.0198139995336532593 -0.0966949984431266785
-0.0654610022902488708 -0.0201789997518062592 -0.0960569977760314941
-0.0614500008523464203 -0.0204520002007484436 -0.0948719978332519531
-0.0578039996325969696 -0.0206349994987249374 -0.0933220013976097107
-0.0572570003569126129 -0.0206349994987249374 -0.0916810035705566406
-0.0620880015194416046 -0.0196320004761219025 -0.0839330032467842102
-0.0412129983305931091 -0.0222750008106231689 -0.0949629992246627808
-0.0190619993954896927 -0.0250100009143352509 -0.106721997261047363
-0.0145039996132254601 -0.0253749992698431015 -0.105719000101089478
-0.00857899989932775497 -0.025831000879406929 -0.105536997318267822
-0.00165099999867379665 -0.0265599992126226425 -0.106174997985363007
0.00199500005692243576 -0.0269239991903305054 -0.106540001928806305
0.010017000138759613 -0.0277449991554021835 -0.107816003262996674
0.0171269997954368591 -0.0283829998224973679 -0.108453996479511261
0.0234169997274875641 -0.0289299990981817245 -0.10836300253868103
0.0311650000512599945 -0.0297500006854534149 -0.109273999929428101
0.0370899997651576996 -0.0302060004323720932 -0.108910001814365387
0.0424689985811710358 -0.0306620001792907715 -0.108180999755859375
0.0487580001354217529 -0.031390998512506485 -0.110186003148555756
0.0559599995613098145 -0.0320289991796016693 -0.110550999641418457
0.0632520020008087158 -0.0327589996159076691 -0.111005999147891998
0.0701799988746643066 -0.0333970002830028534 -0.111097998917102814
0.0786579996347427368 -0.0342170000076293945 -0.112099997699260712
0.0814839974045753479 -0.0343989990651607513 -0.109457001090049744
0.0813930034637451172 -0.0342170000076293945 -0.107178002595901489
0.0818480029702186584 -0.0340350009500980377 -0.102985002100467682
0.0824860036373138428 -0.0338519997894763947 -0.0988830029964447021
0.0803899988532066345 -0.033305000513792038 -0.0931399986147880554
0.0859500020742416382 -0.033760998398065567 -0.0922280028462409973
0.0935159996151924133 -0.034490000456571579 -0.0925019979476928711
0.101811997592449188 -0.0353109985589981079 -0.0932310000061988831
0.109559997916221619 -0.036130998283624649 -0.0958739966154098511
0.117764003574848175 -0.0369520001113414764 -0.0964210033416748047
0.125512003898620605 -0.0376809984445571899 -0.0966039970517158508
0.133899003267288208 -0.0385009981691837311 -0.0972419977188110352
0.141009002923965454 -0.0392309986054897308 -0.0969680026173591614
0.170361995697021484 -0.0426950007677078247 -0.110095001757144928
0.172822996973991394 -0.0427859984338283539 -0.106812998652458191
0.175831004977226257 -0.0430589988827705383 -0.106265999376773834
0.178656995296478271 -0.043150000274181366 -0.103257998824119568
0.179660007357597351 -0.0429680012166500092 -0.0991559997200965881
0.182120993733406067 -0.0430589988827705383 -0.0959659963846206665
0.186223000288009644 -0.043333001434803009 -0.0936869978904724121
0.188045993447303772 -0.043333001434803009 -0.0901319980621337891
0.19005100429058075 -0.043333001434803009 -0.0865759998559951782
0.194061994552612305 -0.0436969995498657227 -0.0865759998559951782
0.196431994438171387 -0.0436969995498657227 -0.0832040011882781982
0.199166998267173767 -0.0437880009412765503 -0.0801040008664131165
0.201627999544143677 -0.0438800007104873657 -0.0768230035901069641
0.205183997750282288 -0.0440619997680187225 -0.0741790011525154114
0.207461997866630554 -0.0441530011594295502 -0.0708059966564178467
0.212110996246337891 -0.0444269999861717224 -0.0687099993228912354
0.21275000274181366 -0.0444269999861717224 -0.0667949989438056946
0.215939998626708984 -0.0446089990437030792 -0.0638779997825622559
0.217124998569488525 -0.04451800137758255 -0.0598669983446598053
0.219221994280815125 -0.04451800137758255 -0.0564029999077320099
0.223324000835418701 -0.0447910018265247345 -0.0539419986307621002
0.225237995386123657 -0.0447910018265247345 -0.0503869988024234772
0.227607995271682739 -0.0449739992618560791 -0.0492930002510547638
0.228064000606536865 -0.0447910018265247345 -0.0449180006980895996
0.232621997594833374 -0.0451559983193874359 -0.0427299998700618744
0.235630005598068237 -0.0452469997107982635 -0.0396310016512870789
0.237818002700805664 -0.0453380011022090912 -0.036166999489068985
0.240005001425743103 -0.0453380011022090912 -0.0327030010521411896
0.198347002267837524 -0.0398689992725849152 -0.00526499981060624123
0.188684001564979553 -0.0384100005030632019 0.0038509999867528677
0.195520997047424316 -0.0390480011701583862 0.00485400017350912094
0.218584001064300537 -0.0416919998824596405 -0.00189199997112154961
0.248300999402999878 -0.0451559983193874359 -0.0116459997370839119
0.23727099597454071 -0.043605998158454895 -0.00189199997112154961
0.250214993953704834 -0.0448819994926452637 -0.00125400000251829624
0.264618009328842163 -0.0464319996535778046 -0.00344099989160895348
0.2671700119972229 -0.0465230010449886322 -0.000159999995958060026
0.269722998142242432 -0.0466139987111091614 0.00321300001814961433
0.273369014263153076 -0.0467969998717308044 0.00613000011071562767
0.275557011365890503 -0.0468880012631416321 0.00968500040471553802
0.277289003133773804 -0.0469789989292621613 0.0111440001055598259
0.279931992292404175 -0.0471610017120838165 0.0145159997045993805
0.282301992177963257 -0.0471610017120838165 0.0179800000041723251
0.283942997455596924 -0.0471610017120838165 0.0218090005218982697
0.286769002676010132 -0.0473439991474151611 0.0250909999012947083
0.246386006474494934 -0.0420560017228126526 0.051252998411655426
0.248300999402999878 -0.0422389991581439972 0.0526200011372566223
0.257052004337310791 -0.0430589988827705383 0.0532580018043518066
0.286769002676010132 -0.0464319996535778046 0.0453270003199577332
0.30053400993347168 -0.0478909984230995178 0.0440509989857673645
0.303541988134384155 -0.0480730012059211731 0.0474239997565746307
0.272639989852905273 -0.0440619997680187225 0.0687550008296966553
0.275283008813858032 -0.0442439988255500793 0.0698489993810653687
0.312202006578445435 -0.0484369993209838867 0.0596389994025230408
0.315573990345001221 -0.048710998147726059 0.0628300011157989502
0.317398011684417725 -0.048710998147726059 0.0665669962763786316
0.319950014352798462 -0.0488019995391368866 0.0701220035552978516
0.322320014238357544 -0.0489839985966682434 0.0736770033836364746
0.3242340087890625 -0.0490759983658790588 0.075226999819278717
0.327789008617401123 -0.0493489988148212433 0.078326001763343811
0.329795002937316895 -0.0493489988148212433 0.0820640027523040771
0.330888986587524414 -0.0493489988148212433 0.0861660018563270569
0.333167999982833862 -0.0494400002062320709 0.0898120030760765076
0.336540013551712036 -0.0497139990329742432 0.0930939987301826477
0.338272005319595337 -0.0497139990329742432 0.0969220027327537537
0.339365988969802856 -0.0497139990329742432 0.098745003342628479
0.345564991235733032 -0.0503519997000694275 0.101024001836776733
0.344015002250671387 -0.0499869994819164276 0.106037996709346771
0.349029004573822021 -0.0503519997000694275 0.108773000538349152
0.350214004516601562 -0.0503519997000694275 0.112874999642372131
0.353859990835189819 -0.0506250001490116119 0.116155996918678284
0.355865985155105591 -0.0507160015404224396 0.11989399790763855
0.358327001333236694 -0.0508989989757537842 0.121352002024650574
0.35932999849319458 -0.0508989989757537842 0.125453993678092957
0.361972987651824951 -0.0510810017585754395 0.129100993275642395
0.366622000932693481 -0.0514459982514381409 0.132109001278877258
0.366712987422943115 -0.0512630008161067963 0.136483997106552124
0.368535995483398438 -0.0513539984822273254 0.140404000878334045
0.371362000703811646 -0.0515369996428489685 0.143959000706672668
0.374278992414474487 -0.051810000091791153 0.145326003432273865
0.372911989688873291 -0.0514459982514381409 0.150158002972602844
0.377104997634887695 -0.051810000091791153 0.153347998857498169
0.375555992126464844 -0.0515369996428489685 0.158270999789237976
0.380843013525009155 -0.051993001252412796 0.161188006401062012
0.382757008075714111 -0.0520839989185333252 0.165107995271682739
0.385035991668701172 -0.0522660017013549805 0.166657000780105591
0.392327994108200073 -0.0529039986431598663 0.169027000665664673
0.397433012723922729 -0.0533600002527236938 0.172034993767738342
0.396977007389068604 -0.053178001195192337 0.176684007048606873
0.397798001766204834 -0.053178001195192337 0.180877998471260071
0.39251101016998291 -0.0524480007588863373 0.186802998185157776
0.390870004892349243 -0.0520839989185333252 0.191725000739097595
0.386038988828659058 -0.0514459982514381409 0.195280000567436218
0.386586010456085205 -0.0514459982514381409 0.19947400689125061
0.385946989059448242 -0.0511719994246959686 0.204123005270957947
0.384761989116668701 -0.0509900003671646118 0.208772003650665283
0.386312007904052734 -0.0509900003671646118 0.212782993912696838
0.386130005121231079 -0.0508989989757537842 0.217249006032943726
0.387223988771438599 -0.0508989989757537842 0.221350997686386108
0.387405991554260254 -0.050808001309633255 0.223447993397712708
0.385401010513305664 -0.0505339987576007843 0.228369995951652527
0.386038988828659058 -0.0504430010914802551 0.232564002275466919
0.390049010515213013 -0.050808001309633255 0.235936000943183899
0.385764986276626587 -0.0501689985394477844 0.241315007209777832
0.385127007961273193 -0.0499869994819164276 0.245781004428863525
0.384398013353347778 -0.0498960018157958984 0.248151004314422607
0.379839986562728882 -0.0492580011487007141 0.253529995679855347
0.381844997406005859 -0.0493489988148212433 0.257358014583587646
0.383121997117996216 -0.0494400002062320709 0.261368989944458008
0.380477994680404663 -0.0489839985966682434 0.266292005777359009
0.380477994680404663 -0.0488930009305477142 0.270576000213623047
0.383850991725921631 -0.0491669997572898865 0.27413100004196167
0.381754010915756226 -0.0488930009305477142 0.276683002710342407
0.379474997520446777 -0.0485289990901947021 0.281423985958099365
0.378199011087417603 -0.0483460016548633575 0.28598099946975708
0.377743005752563477 -0.0481639988720417023 0.290356993675231934
0.378564000129699707 -0.0481639988720417023 0.294458985328674316
0.378654986619949341 -0.0480730012059211731 0.298651993274688721
0.380295991897583008 -0.0481639988720417023 0.302572011947631836
0.380387008190155029 -0.0481639988720417023 0.304668992757797241
0.3812980055809021 -0.0481639988720417023 0.308771014213562012
0.379931002855300903 -0.0478909984230995178 0.313237011432647705
0.379749000072479248 -0.0477989986538887024 0.317521989345550537
0.379931002855300903 -0.0477989986538887024 0.321714997291564941
0.381206989288330078 -0.0477989986538887024 0.32572600245475769
0.386402994394302368 -0.0483460016548633575 0.329098999500274658
0.385127007961273193 -0.0481639988720417023 0.331378012895584106
0.385309010744094849 -0.0480730012059211731 0.335570991039276123
0.386312007904052734 -0.0481639988720417023 0.339673012495040894
0.385673999786376953 -0.0479819998145103455 0.343957006931304932
0.385491997003555298 -0.0478909984230995178 0.348242014646530151
0.386220991611480713 -0.0478909984230995178 0.352344006299972534
0.386130005121231079 -0.0477989986538887024 0.356537014245986938
0.386312007904052734 -0.0477989986538887024 0.35863301157951355
0.382209986448287964 -0.0472519993782043457 0.363373994827270508
0.383213013410568237 -0.0473439991474151611 0.367475986480712891
0.386038988828659058 -0.0476169995963573456 0.371212989091873169
0.38211899995803833 -0.0470700003206729889 0.375952988862991333
0.38649401068687439 -0.0475259982049465179 0.379599004983901978
0.384579986333847046 -0.0472519993782043457 0.381877988576889038
0.384398013353347778 -0.0471610017120838165 0.386072009801864624
0.384488999843597412 -0.0471610017120838165 0.390264987945556641
0.383942008018493652 -0.0469789989292621613 0.394549012184143066
0.391781002283096313 -0.0477989986538887024 0.397740006446838379
0.407095998525619507 -0.0495310015976428986 0.400292009115219116
-0.419514000415802002 0.00425100000575184822 -0.0829299986362457275
-0.415868014097213745 0.00388700002804398537 -0.0834769979119300842
-0.412950992584228516 0.00370400003157556057 -0.0830210000276565552
-0.408939987421035767 0.00334000005386769772 -0.0839330032467842102
-0.40565800666809082 0.00315700005739927292 -0.0838420018553733826
-0.403744012117385864 0.00297500006854534149 -0.0841149985790252686
-0.399823993444442749 0.00261000008322298527 -0.0848440006375312805
-0.396360009908676147 0.00233700009994208813 -0.0850270017981529236
-0.392805010080337524 0.00206300010904669762 -0.0852089971303939819
-0.389250010251998901 0.00169900001492351294 -0.0854829996824264526
-0.386242002248764038 0.00160800002049654722 -0.0849360004067420959
-0.383688986301422119 0.001243000035174191 -0.0860290005803108215
-0.380225002765655518 0.000969999993685632944 -0.0859379991888999939
-0.376670002937316895 0.000696000002790242434 -0.0860290005803108215
-0.373205989599227905 0.000422999990405514836 -0.086121000349521637
-0.369650989770889282 0.000148999999510124326 -0.086121000349521637
-0.36636999249458313 -3.30000002577435225e-05 -0.0858469977974891663
-0.362632006406784058 -0.000307000009343028069 -0.0860290005803108215
-0.359896987676620483 -0.000670999987050890923 -0.0872140005230903625
-0.356525003910064697 -0.00085399998351931572 -0.0869409963488578796
-0.352696001529693604 -0.00121799996122717857 -0.0871229991316795349
-0.34914100170135498 -0.00149199995212256908 -0.0871229991316795349
-0.345311999320983887 -0.00176500005181878805 -0.087306000292301178
-0.342121988534927368 -0.00203899992629885674 -0.0868500024080276489
-0.339569985866546631 -0.00231199990957975388 -0.0876699984073638916
-0.335922986268997192 -0.00258599990047514439 -0.087578997015953064
-0.331092000007629395 -0.00304100010544061661 -0.088763996958732605
-0.327993005514144897 -0.0032240001019090414 -0.0881259962916374207
-0.323982000350952148 -0.00358800007961690426 -0.0883079990744590759
-0.321247011423110962 -0.00367900007404386997 -0.0872140005230903625
-0.317236006259918213 -0.0040440000593662262 -0.0874880030751228333
-0.314137011766433716 -0.00440899981185793877 -0.088763996958732605
-0.310216993093490601 -0.00477299978956580162 -0.088763996958732605
-0.306479990482330322 -0.00504700001329183578 -0.0886730030179023743
-0.30219501256942749 -0.00541099999099969864 -0.0890379995107650757
-0.29836699366569519 -0.0056850002147257328 -0.0890379995107650757
-0.293990999460220337 -0.00614099996164441109 -0.0894019976258277893
-0.290618002414703369 -0.00632299995049834251 -0.0888549983501434326
-0.287609994411468506 -0.00668800016865134239 -0.089948996901512146
-0.283235013484954834 -0.00705200014635920525 -0.0902229994535446167
-0.279040992259979248 -0.00741699989885091782 -0.090405002236366272
-0.274848014116287231 -0.00778200011700391769 -0.0904960036277770996
-0.270563989877700806 -0.00814600009471178055 -0.0907699987292289734
-0.266734987497329712 -0.0084199998527765274 -0.0904960036277770996
-0.2629069983959198 -0.00878399983048439026 -0.0902229994535446167
-0.259169012308120728 -0.00923999957740306854 -0.0917719975113868713
-0.254702985286712646 -0.00960499979555606842 -0.0921370014548301697
-0.251511991024017334 -0.00978699978440999985 -0.091133996844291687
-0.246498003602027893 -0.0102430004626512527 -0.091862998902797699
-0.242761000990867615 -0.0105159999802708626 -0.0913169980049133301
-0.237838998436927795 -0.0110630001872777939 -0.0919549986720085144
-0.234466001391410828 -0.0114280004054307938 -0.0931399986147880554
-0.229999005794525146 -0.0117920003831386566 -0.0931399986147880554
-0.226716995239257812 -0.0119749996811151505 -0.0922280028462409973
-0.221065998077392578 -0.0126130003482103348 -0.0933220013976097107
-0.21741899847984314 -0.0127950003370642662 -0.0925929993391036987
-0.21249699592590332 -0.0132510000839829445 -0.0930489972233772278
-0.207665994763374329 -0.0137069998309016228 -0.0933220013976097107
-0.203290000557899475 -0.0142540000379085541 -0.0952360033988952637
-0.200281992554664612 -0.0144360000267624855 -0.0937779992818832397
-0.195723995566368103 -0.0148010002449154854 -0.0938690006732940674
-0.189889997243881226 -0.0154389999806880951 -0.0948719978332519531
-0.190983995795249939 -0.0148919997736811638 -0.0898580029606819153
-0.184694007039070129 -0.0156209999695420265 -0.0912249982357025146
-0.0736650004982948303 -0.0324850007891654968 -0.183476001024246216
-0.0743030011653900146 -0.0322120003402233124 -0.18055899441242218
-0.0738470032811164856 -0.0319380015134811401 -0.17636600136756897
-0.07275400310754776 -0.0317559987306594849 -0.172628000378608704
-0.0731180012226104736 -0.0313000008463859558 -0.167705997824668884
-0.0716599971055984497 -0.0312089994549751282 -0.164333000779151917
-0.0707480013370513916 -0.0310270003974437714 -0.160686999559402466
-0.0697449967265129089 -0.0308439992368221283 -0.1569489985704422
-0.0695630013942718506 -0.0306620001792907715 -0.154761999845504761
-0.0799549967050552368 -0.0287480000406503677 -0.141726002097129822
-0.0793170034885406494 -0.0285650007426738739 -0.137806996703147888
-0.0786790028214454651 -0.0282920002937316895 -0.133886992931365967
-0.0784050002694129944 -0.028017999604344368 -0.129693999886512756
-0.0777669996023178101 -0.0277449991554021835 -0.125864997506141663
-0.0784050002694129944 -0.0275630000978708267 -0.123130001127719879
-0.0788609981536865234 -0.0271070003509521484 -0.118481002748012543
-0.078496001660823822 -0.0269239991903305054 -0.114469997584819794
-0.075124002993106842 -0.0271070003509521484 -0.112737998366355896
-0.0760350003838539124 -0.0266510006040334702 -0.107816003262996674
-0.0781320035457611084 -0.0260129999369382858 -0.101891003549098969
-0.079681001603603363 -0.0254660006612539291 -0.0964210033416748047
-0.0762180015444755554 -0.025831000879406929 -0.0969680026173591614
-0.0741209983825683594 -0.025831000879406929 -0.0943249985575675964
-0.0689250007271766663 -0.0262860003858804703 -0.0940510034561157227
-0.0637290030717849731 -0.026832999661564827 -0.0937779992818832397
-0.0600830018520355225 -0.02701600082218647 -0.0922280028462409973
-0.0601739995181560516 -0.0267420001327991486 -0.0880350023508071899
-0.0579859986901283264 -0.0267420001327991486 -0.0853909999132156372
-0.0326449982821941376 -0.0302969999611377716 -0.101981997489929199
-0.0228909999132156372 -0.031390998512506485 -0.104808002710342407
-0.0169660001993179321 -0.0319380015134811401 -0.104808002710342407
-0.00967300031334161758 -0.0327589996159076691 -0.105719000101089478
-0.00301899993792176247 -0.0333970002830028534 -0.106174997985363007
0.001538999960757792 -0.033760998398065567 -0.104989998042583466
0.00719100004062056541 -0.0343989990651607513 -0.106812998652458191
0.0138450004160404205 -0.0350369997322559357 -0.107087001204490662
0.0193150006234645844 -0.0355839990079402924 -0.106540001928806305
0.0256960000842809677 -0.036130998283624649 -0.106631003320217133
0.0297979991883039474 -0.0364959985017776489 -0.105080999433994293
0.0335349999368190765 -0.0366780012845993042 -0.10316699743270874
0.0378200002014636993 -0.0370430015027523041 -0.101708002388477325
0.0376369990408420563 -0.0368609987199306488 -0.0993380025029182434
0.0372730009257793427 -0.0364959985017776489 -0.0946889966726303101
0.0339910015463829041 -0.0357670001685619354 -0.0881259962916374207
0.0398249998688697815 -0.0363139994442462921 -0.0876699984073638916
0.0452940016984939575 -0.0367689989507198334 -0.0869409963488578796
0.0523139983415603638 -0.0374989993870258331 -0.0871229991316795349
0.0605180002748966217 -0.0383189991116523743 -0.0881259962916374207
0.0681750029325485229 -0.0392309986054897308 -0.0909520015120506287
0.0749199986457824707 -0.0399600006639957428 -0.090861000120639801
0.0825780034065246582 -0.0406889989972114563 -0.0913169980049133301
0.0904169976711273193 -0.0415100008249282837 -0.091862998902797699
0.0978920012712478638 -0.0423300005495548248 -0.0921370014548301697
0.105276003479957581 -0.0430589988827705383 -0.092318996787071228
0.113023996353149414 -0.0437880009412765503 -0.0925929993391036987
0.117035001516342163 -0.0442439988255500793 -0.0928660035133361816
0.11922299861907959 -0.0442439988255500793 -0.08967600017786026
0.124236002564430237 -0.0447000004351139069 -0.0882169976830482483
0.12779100239276886 -0.0448819994926452637 -0.0858469977974891663
0.128520995378494263 -0.0447000004351139069 -0.0818360000848770142
0.132348999381065369 -0.0449739992618560791 -0.0796480029821395874
0.135266005992889404 -0.0450650006532669067 -0.0768230035901069641
0.135175004601478577 -0.0449739992618560791 -0.0745439976453781128
0.135995998978614807 -0.0447910018265247345 -0.0705329999327659607
0.139367997646331787 -0.0449739992618560791 -0.068071998655796051
0.141191005706787109 -0.0449739992618560791 -0.0646080002188682556
0.143288001418113708 -0.0449739992618560791 -0.061326000839471817
0.147025004029273987 -0.0452469997107982635 -0.0590469986200332642
0.148302003741264343 -0.0452469997107982635 -0.0575889982283115387
0.149578005075454712 -0.0451559983193874359 -0.053851000964641571
0.152312994003295898 -0.0453380011022090912 -0.0509340018033981323
0.156415000557899475 -0.0456119999289512634 -0.0487460009753704071
0.159422993659973145 -0.0457030013203620911 -0.046011999249458313
0.161063998937606812 -0.0457030013203620911 -0.0424569994211196899
0.162613004446029663 -0.0457030013203620911 -0.0389010012149810791
0.165803998708724976 -0.0459760017693042755 -0.0384460017085075378
0.168630003929138184 -0.0460669994354248047 -0.0355289988219738007
0.170269995927810669 -0.0460669994354248047 -0.0319730006158351898
0.173552006483078003 -0.0462500005960464478 -0.0293300002813339233
0.176012992858886719 -0.0463409982621669769 -0.0261390004307031631
0.178110003471374512 -0.0464319996535778046 -0.0228579994291067123
0.182030007243156433 -0.046705000102519989 -0.0204879995435476303
0.183853000402450562 -0.0467969998717308044 -0.0193029996007680893
0.18567599356174469 -0.0467969998717308044 -0.0157479997724294662
0.188775002956390381 -0.0469789989292621613 -0.0129220001399517059
0.19005100429058075 -0.0468880012631416321 -0.00918400008231401443
0.192239001393318176 -0.0469789989292621613 -0.00599400000646710396
0.195429995656013489 -0.0471610017120838165 -0.00316799990832805634
0.194883003830909729 -0.0469789989292621613 -0.000707000028342008591
0.190780997276306152 -0.0462500005960464478 0.00567399989813566208
0.201902002096176147 -0.0474350005388259888 0.00457999994978308678
0.203633993864059448 -0.0474350005388259888 0.00813599955290555954
0.205639004707336426 -0.0474350005388259888 0.0115080000832676888
0.209103003144264221 -0.0477080009877681732 0.0142430001869797707
0.210834994912147522 -0.0477080009877681732 0.0177979990839958191
0.212932005524635315 -0.0478909984230995178 0.0189830008894205093
0.214298993349075317 -0.0477989986538887024 0.0227210000157356262
0.217399001121520996 -0.0480730012059211731 0.0256379991769790649
0.220223993062973022 -0.0481639988720417023 0.0286459997296333313
0.221682995557785034 -0.0481639988720417023 0.032292000949382782
0.223961994051933289 -0.0482550002634525299 0.0356650017201900482
0.226241007447242737 -0.0483460016548633575 0.0389470010995864868
0.228064000606536865 -0.0484369993209838867 0.0403140000998973846
0.231619000434875488 -0.048710998147726059 0.0430490002036094666
0.233715996146202087 -0.0488019995391368866 0.046512998640537262
0.235630005598068237 -0.0488019995391368866 0.0499759986996650696
0.236267998814582825 -0.048710998147726059 0.0540789999067783356
0.241282001137733459 -0.0491669997572898865 0.0561750009655952454
0.244380995631217957 -0.0494400002062320709 0.0570870004594326019
0.244562998414039612 -0.0492580011487007141 0.0612800009548664093
0.246295005083084106 -0.0492580011487007141 0.0649259984493255615
0.248665004968643188 -0.0493489988148212433 0.0682080015540122986
0.250032991170883179 -0.0493489988148212433 0.07194499671459198
0.253497004508972168 -0.049623001366853714 0.0748620033264160156
0.255501985549926758 -0.0497139990329742432 0.078326001763343811
0.257598996162414551 -0.0498960018157958984 0.0796940028667449951
0.259056985378265381 -0.0498960018157958984 0.0833399966359138489
0.261518001556396484 -0.0499869994819164276 0.0867130011320114136
0.261792004108428955 -0.0498050004243850708 0.0909060016274452209
0.265255987644195557 -0.0500780008733272552 0.0938230007886886597
0.26625901460647583 -0.0499869994819164276 0.0977429971098899841
0.267807990312576294 -0.0500780008733272552 0.101479999721050262
0.270543009042739868 -0.0502609983086585999 0.102573998272418976
0.270725011825561523 -0.0501689985394477844 0.106766998767852783
0.272639989852905273 -0.0501689985394477844 0.110321998596191406
0.276286005973815918 -0.0504430010914802551 0.113238997757434845
0.278838008642196655 -0.0506250001490116119 0.11661200225353241
0.279475986957550049 -0.0505339987576007843 0.120622999966144562
0.282393008470535278 -0.0507160015404224396 0.123905003070831299
0.283030986785888672 -0.0507160015404224396 0.125727996230125427
0.284855008125305176 -0.050808001309633255 0.129373997449874878
0.289321005344390869 -0.0511719994246959686 0.132109001278877258
0.289229989051818848 -0.0509900003671646118 0.136392995715141296
0.291691005229949951 -0.0511719994246959686 0.139765992760658264
0.293879002332687378 -0.0512630008161067963 0.143320992588996887
0.294335007667541504 -0.0512630008161067963 0.145326003432273865
0.295792996883392334 -0.0512630008161067963 0.149064004421234131
0.298254996538162231 -0.0514459982514381409 0.152528002858161926
0.300350993871688843 -0.0515369996428489685 0.156083002686500549
0.301901012659072876 -0.0515369996428489685 0.159820005297660828
0.304361999034881592 -0.0517189987003803253 0.163284003734588623
0.309740006923675537 -0.0522660017013549805 0.165837004780769348
0.311017006635665894 -0.0522660017013549805 0.167568996548652649
0.31293100118637085 -0.0523569993674755096 0.1712149977684021
0.316303998231887817 -0.0526309981942176819 0.174406006932258606
0.325509995222091675 -0.0536330007016658783 0.175954997539520264
0.32614898681640625 -0.0535419993102550507 0.18005700409412384
0.327971994876861572 -0.0536330007016658783 0.183704003691673279
0.324324995279312134 -0.0530860014259815216 0.18908199667930603
0.320315003395080566 -0.0525400005280971527 0.192362993955612183
0.316029995679855347 -0.0519010014832019806 0.197833001613616943
0.315210014581680298 -0.0516280010342597961 0.202298998832702637
0.316211998462677002 -0.0516280010342597961 0.206219002604484558
0.315301001071929932 -0.0513539984822273254 0.210685998201370239
0.312566012144088745 -0.0508989989757537842 0.215608000755310059
0.313933998346328735 -0.0509900003671646118 0.217340007424354553
0.313387006521224976 -0.050808001309633255 0.221625000238418579
0.31238400936126709 -0.0505339987576007843 0.226090997457504272
0.315118998289108276 -0.050808001309633255 0.22946399450302124
0.312656998634338379 -0.0503519997000694275 0.23429599404335022
0.311471998691558838 -0.0500780008733272552 0.238762006163597107
0.31438899040222168 -0.0503519997000694275 0.242135003209114075
0.314572006464004517 -0.0502609983086585999 0.244139999151229858
0.313933998346328735 -0.0500780008733272552 0.248425006866455078
0.312018990516662598 -0.0498050004243850708 0.252983003854751587
0.311928004026412964 -0.049623001366853714 0.257176011800765991
0.311928004026412964 -0.0495310015976428986 0.261278003454208374
0.311655014753341675 -0.0493489988148212433 0.265471011400222778
0.312566012144088745 -0.0493489988148212433 0.269300013780593872
0.311199009418487549 -0.0491669997572898865 0.271670013666152954
0.311381012201309204 -0.0490759983658790588 0.275680989027023315
0.31238400936126709 -0.0490759983658790588 0.279509007930755615
0.310743004083633423 -0.0488019995391368866 0.283975988626480103
0.311107993125915527 -0.048710998147726059 0.287986993789672852
0.312292993068695068 -0.0488019995391368866 0.291815012693405151
0.31238400936126709 -0.048710998147726059 0.295825988054275513
0.311655014753341675 -0.0486200004816055298 0.298013985157012939
0.311928004026412964 -0.0485289990901947021 0.301934003829956055
