ply
format ascii 1.0
element vertex 628
comment vertices
property float x
property float y
property float z
property uchar red
property uchar green
property uchar blue
end_header
-0.0857999995350837708 -0.469000011682510376 0.186399996280670166 191 189 166
-0.275999993085861206 0.0842999964952468872 -0.326000005006790161 153 155 141
0.106200002133846283 -0.175699993968009949 -0.269300013780593872 95 70 66
-0.737600028514862061 -0.474999994039535522 0.274699985980987549 191 180 155
-1.04550004005432129 -0.477999985218048096 0.246399998664855957 185 173 151
-0.068300001323223114 -0.470499992370605469 -0.192100003361701965 100 99 80
-0.41530001163482666 -0.146300002932548523 -0.345099985599517822 117 117 91
0.414499998092651367 -0.469999998807907104 0.122500002384185791 210 197 169
1.48430001735687256 -0.489600002765655518 -0.364100009202957153 179 170 143
0.259999990463256836 -0.316000014543533325 -0.070799998939037323 78 30 31
-1.73280000686645508 -0.482300013303756714 0.281899988651275635 160 151 136
0.0165999997407197952 0.166500002145767212 0.00249999994412064552 76 10 11
0.354299992322921753 -0.215299993753433228 -0.255600005388259888 130 118 99
1.7676999568939209 -0.49660000205039978 -0.41040000319480896 174 161 132
0.548300027847290039 -0.163100004196166992 -0.231399998068809509 173 165 152
0.385100007057189941 -0.435499995946884155 -0.0322999991476535797 47 45 40
0.373800009489059448 0.464100003242492676 -0.259400010108947754 154 148 133
-0.264400005340576172 -0.46180000901222229 -0.332700014114379883 104 95 80
-0.916100025177001953 -0.476000010967254639 0.374599993228912354 175 165 151
0.414799988269805908 -0.155699998140335083 -0.24830000102519989 147 134 109
0.613699972629547119 -0.474200010299682617 0.101499997079372406 196 187 161
0.0855000019073486328 -0.467500001192092896 0.205300003290176392 198 188 166
0.666700005531311035 -0.475400000810623169 0.114799998700618744 183 179 161
-0.466199994087219238 -0.477699995040893555 0.0463999994099140167 176 168 139
0.294499993324279785 0.408399999141693115 -0.254599988460540771 142 111 103
0.116099998354911804 -0.333799988031387329 -0.272000014781951904 107 55 37
0.065800003707408905 -0.468400001525878906 -0.171399995684623718 75 65 53
0.364499986171722412 -0.469300001859664917 0.253199994564056396 119 106 39
0.880699992179870605 0.0998999997973442078 -0.195299997925758362 198 184 167
-0.506900012493133545 -0.364600002765655518 -0.360599994659423828 122 117 96
0.31099998950958252 0.192499995231628418 -0.0439000017940998077 96 24 25
0.7346000075340271 0.255600005388259888 -0.21119999885559082 210 202 200
0.72630000114440918 0.0643000006675720215 -0.21520000696182251 183 175 157
0.527800023555755615 -0.475400000810623169 0.323300004005432129 209 194 139
-0.843699991703033447 -0.476999998092651367 0.184200003743171692 191 184 158
-0.762300014495849609 -0.43040001392364502 -0.421600013971328735 135 124 101
0.792999982833862305 0.225099995732307434 -0.205699995160102844 208 194 181
0.300399988889694214 0.0507999993860721588 -0.00669999979436397552 124 67 67
0.296600013971328735 -0.251899987459182739 -0.00659999996423721313 101 25 30
1.64409995079040527 -0.489800006151199341 -0.394300013780593872 179 163 130
0.294600009918212891 -0.0122999995946884155 0.0120999999344348907 125 43 40
0.205599993467330933 -0.45629999041557312 0.155599996447563171 108 55 60
0.653900027275085449 -0.476999998092651367 0.246800005435943604 182 176 154
-0.635900020599365234 -0.474999994039535522 0.197300001978874207 191 181 155
0.503499984741210938 0.0570000000298023224 -0.238600000739097595 188 176 158
0.483700007200241089 -0.472000002861022949 0.115800000727176666 181 171 151
0.0736000016331672668 -0.0916000008583068848 -0.193299993872642517 107 92 84
0.913999974727630615 -0.376899987459182739 -0.195700004696846008 150 143 126
0.294099986553192139 0.326000005006790161 -0.264200001955032349 170 142 123
0.993900001049041748 -0.483000010251998901 -0.0891999974846839905 190 186 167
-0.344799995422363281 -0.225700005888938904 -0.336100012063980103 128 122 97
0.172399997711181641 -0.472499996423721313 0.578999996185302734 0 0 0
-1.45599997043609619 -0.481999993324279785 0.0322000011801719666 136 134 117
-0.10859999805688858 -0.470999985933303833 0.326099991798400879 186 180 161
-0.956099987030029297 -0.476599991321563721 0.275900006294250488 189 176 154
0.291000008583068848 -0.107199996709823608 0.0250000003725290298 123 40 41
0.214200004935264587 0.250699996948242188 -0.223000004887580872 164 159 129
0.244800001382827759 -0.0953999981284141541 0.0864999964833259583 127 112 102
1.53799998760223389 -0.488999992609024048 -0.346700012683868408 180 168 137
-0.232700005173683167 -0.471700012683868408 0.327300012111663818 184 174 146
-0.625400006771087646 -0.472200006246566772 -0.345200002193450928 136 124 97
0.215000003576278687 -0.467000007629394531 0.0542999990284442902 155 166 145
-0.0948999971151351929 -0.469000011682510376 0.15379999577999115 191 186 166
-0.325500011444091797 -0.476500004529953003 -0.214100003242492676 130 123 100
0.0250000003725290298 -0.473899990320205688 0.563099980354309082 118 114 97
0.774299979209899902 -0.383899986743927002 -0.215000003576278687 166 158 144
0.503400027751922607 -0.473600000143051147 0.33680000901222229 206 199 184
-1.48759996891021729 -0.48059999942779541 0.142800003290176392 168 160 135
0.33469998836517334 0.396299988031387329 -0.260300010442733765 189 179 172
-1.21329998970031738 -0.478500008583068848 0.31959998607635498 170 160 139
1.30299997329711914 -0.481400012969970703 -0.306400001049041748 173 166 143
0.00460000010207295418 0.0935000032186508179 -0.295599997043609619 116 109 105
0.394499987363815308 0.0668999999761581421 -0.251700013875961304 134 122 100
-0.0957999974489212036 0.233600005507469177 -0.308699995279312134 117 106 96
-1.47440004348754883 -0.481999993324279785 0.357499986886978149 173 163 148
-0.697499990463256836 -0.345200002193450928 -0.378899991512298584 149 132 113
1.61310005187988281 -0.491299986839294434 -0.318500012159347534 184 169 136
0.00380000006407499313 -0.261299997568130493 -0.290800005197525024 131 127 112
1.00539994239807129 -0.324400007724761963 -0.196099996566772461 164 160 146
0.634400010108947754 -0.474999994039535522 0.145999997854232788 192 182 156
-1.83609998226165771 -0.482899993658065796 0.0962999984622001648 165 159 143
1.13689994812011719 -0.485000014305114746 -0.198400005698204041 179 166 137
0.288599997758865356 0.247500002384185791 -0.259400010108947754 120 99 82
0.245900005102157593 -0.26600000262260437 0.0838000029325485229 89 22 24
1.28620004653930664 -0.487300008535385132 -0.104999996721744537 199 194 170
-0.726000010967254639 -0.468699991703033447 -0.366400003433227539 157 151 120
0.37929999828338623 -0.335999995470046997 -0.0126000000163912773 42 55 43
-0.260500013828277588 0.0463000014424324036 -0.325500011444091797 149 149 121
0.284500002861022949 0.132799997925758362 0.040800001472234726 119 38 40
-1.45510005950927734 -0.480699986219406128 0.152300000190734863 170 161 137
-0.0320000015199184418 -0.316399991512298584 -0.153600007295608521 29 28 24
0.543399989604949951 0.150999993085861206 -0.234099999070167542 195 187 172
0.313300013542175293 0.27430000901222229 -0.191100001335144043 109 62 52
-0.127800002694129944 -0.471899986267089844 0.436199992895126343 184 177 163
-0.352699995040893555 -0.475199997425079346 0.130400002002716064 200 188 163
0.0436000004410743713 -0.193900004029273987 0.0670000016689300537 139 36 41
0.614700019359588623 -0.477699995040893555 0.275700002908706665 182 176 157
-0.00689999992027878761 0.446200013160705566 -0.300300002098083496 156 150 139
-1.36300003528594971 -0.480899989604949951 0.145199999213218689 176 166 139
-0.0544000007212162018 -0.334899991750717163 -0.301699995994567871 124 122 110
0.883800029754638672 -0.345999985933303833 -0.199000000953674316 171 162 139
0.282799988985061646 0.054900001734495163 -0.18240000307559967 119 76 60
0.485000014305114746 0.393200010061264038 -0.243599995970726013 201 193 177
0.17640000581741333 -0.467700004577636719 -0.054200001060962677 127 115 104
-0.826499998569488525 -0.454899996519088745 -0.460799992084503174 139 118 104
0.0480000004172325134 -0.467500001192092896 0.189500004053115845 173 164 148
0.957000017166137695 -0.482199996709823608 0.142000004649162292 195 192 174
-0.0450000017881393433 -0.444200009107589722 -0.124300003051757812 42 42 35
0.0822999998927116394 -0.467700004577636719 0.213599994778633118 150 142 135
0.848100006580352783 0.122299998998641968 -0.200200006365776062 201 194 191
0.030899999663233757 -0.273299992084503174 -0.124499998986721039 60 23 24
2.04369997978210449 -0.462900012731552124 -0.461400002241134644 134 135 130
-0.151199996471405029 -0.0822999998927116394 -0.312000006437301636 147 138 118
0.312000006437301636 0.137899994850158691 -0.0439000017940998077 82 35 35
0.567600011825561523 -0.045200001448392868 -0.230000004172325134 180 171 155
0.0485999993979930878 -0.0771000012755393982 -0.175200000405311584 83 19 20
-0.295300006866455078 0.245000004768371582 -0.33190000057220459 154 153 143
0.00480000022798776627 -0.469099998474121094 0.27279999852180481 188 178 156
0.961399972438812256 -0.481999993324279785 -0.0929000005125999451 197 191 170
-1.5233999490737915 -0.482400000095367432 0.0516999997198581696 172 166 139
1.04309999942779541 -0.481700003147125244 0.025299999862909317 196 192 169
0.91530001163482666 -0.0370999984443187714 -0.191499993205070496 180 173 149
0.0768000036478042603 -0.467099994421005249 0.275799989700317383 167 158 142
0.0357000008225440979 -0.343600004911422729 -0.0737000033259391785 69 43 40
-0.0131000000983476639 -0.466199994087219238 0.234500005841255188 99 91 41
-1.3050999641418457 -0.481000006198883057 0.265899986028671265 173 163 143
1.19690001010894775 -0.48550000786781311 -0.101999998092651367 201 197 176
-0.174400001764297485 -0.470400005578994751 0.0447000004351139069 174 167 141
-0.19580000638961792 -0.470999985933303833 -0.187700003385543823 155 144 117
0.0229000002145767212 -0.295399993658065796 -0.194399997591972351 131 120 118
-0.113799996674060822 -0.465499997138977051 -0.31189998984336853 129 121 65
-0.00260000000707805157 -0.469000011682510376 0.29249998927116394 163 154 134
0.205599993467330933 -0.39379999041557312 -0.283800005912780762 65 57 47
-0.175500005483627319 -0.470999985933303833 0.0758000016212463379 199 194 169
0.0648000016808509827 -0.155200004577636719 0.0852999985218048096 120 28 33
2.02530002593994141 -0.46520000696182251 -0.463699996471405029 136 137 130
0.496699988842010498 -0.472999989986419678 -0.068599998950958252 157 150 134
-0.950600028038024902 -0.477999985218048096 0.178200006484985352 187 178 156
0.0218000002205371857 -0.263399988412857056 0.0324000008404254913 98 25 25
0.473800003528594971 -0.469199985265731812 0.276800006628036499 27 28 40
-1.73720002174377441 -0.484200000762939453 0.143099993467330933 169 161 145
-0.131099998950958252 -0.0788000002503395081 -0.310099989175796509 156 150 138
0.283199995756149292 -0.373699992895126343 -0.268200010061264038 76 66 53
0.62650001049041748 -0.11029999703168869 -0.22290000319480896 193 188 180
-0.0155999995768070221 -0.337099999189376831 -0.0667999982833862305 11 12 9
0.979700028896331787 -0.483599990606307983 0.142100006341934204 203 195 172
0.16550000011920929 -0.465099990367889404 0.116400003433227539 164 152 131
0.0329999998211860657 0.117899999022483826 0.0331000015139579773 92 25 31
-0.345600008964538574 -0.469999998807907104 0.444900006055831909 193 185 168
0.77649998664855957 -0.0542999990284442902 -0.207399994134902954 173 165 141
-0.303600013256072998 -0.472999989986419678 0.255199998617172241 165 157 135
0.0120999999344348907 -0.257299989461898804 -0.200200006365776062 21 26 20
-0.444999992847442627 -0.481999993324279785 -0.294699996709823608 121 118 89
0.275000005960464478 0.31679999828338623 -0.145600005984306335 218 218 194
1.04680001735687256 -0.472799986600875854 -0.204400002956390381 179 173 153
0.355399996042251587 -0.267699986696243286 -0.0350000001490116119 62 61 58
0.276300013065338135 -0.0511999987065792084 0.0491999983787536621 139 60 57
-0.763199985027313232 -0.457599997520446777 -0.398799985647201538 159 152 131
0.505200028419494629 -0.206000000238418579 -0.23739999532699585 172 158 139
-1.5428999662399292 -0.481999993324279785 0.297800004482269287 172 160 143
0.444200009107589722 0.485199987888336182 -0.250499993562698364 188 183 176
-0.704699993133544922 -0.46520000696182251 -0.375499993562698364 168 160 130
0.745599985122680664 -0.476500004529953003 0.184499993920326233 141 139 70
-0.225799992680549622 0.0122999995946884155 -0.322100013494491577 146 144 119
0.0527999997138977051 -0.0865999981760978699 -0.287600010633468628 125 145 121
0.46459999680519104 0.462900012731552124 -0.248699992895126343 160 156 138
-0.039400000125169754 -0.305200010538101196 -0.136299997568130493 38 40 36
-0.0441000014543533325 -0.455700010061264038 -0.114000000059604645 79 60 52
0.0942000001668930054 -0.0172000005841255188 -0.27649998664855957 109 64 63
-1.43610000610351562 -0.480699986219406128 0.306699991226196289 167 156 138
0.237599998712539673 -0.0131000000983476639 0.0881000012159347534 198 189 193
-0.312599986791610718 -0.474299997091293335 0.135800004005432129 202 188 164
0.585699975490570068 -0.391099989414215088 -0.239700004458427429 150 144 129
0.0581000000238418579 -0.46029999852180481 0.122400000691413879 153 121 107
-0.714800000190734863 -0.470499992370605469 -0.314300000667572021 152 143 111
0.568799972534179688 -0.446999996900558472 -0.243300005793571472 153 145 127
-0.664900004863739014 -0.474900007247924805 0.400799989700317383 175 164 145
0.866900026798248291 -0.303400009870529175 -0.199799999594688416 191 181 161
-0.575399994850158691 -0.473600000143051147 0.237100005149841309 190 180 154
0.0220999997109174728 -0.143299996852874756 -0.0930999964475631714 73 24 22
1.5765000581741333 -0.490000009536743164 -0.314999997615814209 179 165 132
0.242599993944168091 0.316000014543533325 -0.0274999998509883881 193 171 158
-0.0212999992072582245 -0.293999999761581421 -0.205400004982948303 49 53 40
0.324999988079071045 -0.379700005054473877 -0.107600003480911255 117 42 46
-1.04349994659423828 -0.480899989604949951 0.0961999967694282532 171 169 147
0.293900012969970703 -0.375299990177154541 -0.267500013113021851 68 55 44
-0.0958999991416931152 -0.176799997687339783 -0.304600000381469727 127 122 104
1.31379997730255127 -0.486000001430511475 -0.254799991846084595 187 176 151
1.38349997997283936 -0.487100005149841309 -0.304300010204315186 166 158 130
-1.57480001449584961 -0.480399996042251587 0.254500001668930054 159 150 136
0.265500009059906006 -0.466199994087219238 -0.132799997925758362 93 83 70
0.0463999994099140167 -0.224999994039535522 -0.164599999785423279 77 20 18
-1.0139000415802002 -0.478100001811981201 0.424699991941452026 174 164 156
-0.715600013732910156 -0.470200002193450928 -0.231099992990493774 165 161 117
-0.194499999284744263 -0.0234999991953372955 -0.317499995231628418 140 135 122
0.544900000095367432 0.144099995493888855 -0.234099999070167542 184 175 165
0.0758000016212463379 0.134200006723403931 -0.285899996757507324 114 94 82
-0.0945999994874000549 -0.469999998807907104 -0.0456000007688999176 141 133 115
-0.755200028419494629 -0.477100014686584473 0.166299998760223389 202 193 167
0.0234999991953372955 -0.325800001621246338 -0.222399994730949402 98 49 48
0.833000004291534424 -0.47720000147819519 0.0835999995470046997 199 191 164
0.478100001811981201 -0.194399997591972351 -0.240299999713897705 155 143 126
-0.34940001368522644 0.260399997234344482 -0.341100007295608521 123 123 110
0.556400001049041748 -0.148399993777275085 -0.230800002813339233 173 160 146
0.25830000638961792 -0.467000007629394531 -0.142299994826316833 84 77 66
-0.827300012111663818 -0.469399988651275635 -0.338699996471405029 148 147 95
-0.00510000018402934074 -0.469000011682510376 0.302399992942810059 185 178 156
-0.849300026893615723 -0.476000010967254639 0.313600003719329834 186 174 156
0.192499995231628418 -0.300300002098083496 0.0873000025749206543 128 46 54
-1.48360002040863037 -0.47999998927116394 0.215700000524520874 171 161 138
-0.11860000342130661 0.454499989748001099 -0.314700007438659668 134 129 117
0.607200026512145996 -0.160799995064735413 -0.224000006914138794 189 180 160
0.715300023555755615 -0.297800004482269287 -0.214100003242492676 172 161 138
0.0973000004887580872 -0.46799999475479126 0.316599994897842407 190 182 158
0.0216000005602836609 -0.29370000958442688 -0.214200004935264587 101 74 66
0.868900001049041748 -0.373199999332427979 -0.203199997544288635 165 156 143
-0.287800014019012451 -0.472000002861022949 0.285899996757507324 179 172 147
0.0384999997913837433 0.0948999971151351929 0.0416000001132488251 139 77 77
0.0971999987959861755 0.294699996709823608 -0.204400002956390381 204 201 187
0.323300004005432129 -0.436399996280670166 -0.263700008392333984 104 98 91
1.12080001831054688 -0.445699989795684814 -0.253199994564056396 190 179 153
-0.805999994277954102 -0.477100014686584473 0.176300004124641418 197 191 167
-0.346899986267089844 -0.064999997615814209 -0.336899995803833008 142 140 114
-0.0149999996647238731 -0.404300004243850708 -0.0650999993085861206 26 26 22
-0.319999992847442627 -0.471500009298324585 0.504599988460540771 113 111 106
-0.986800014972686768 -0.478300005197525024 0.172499999403953552 183 174 146
-0.0750999972224235535 0.154499992728233337 -0.304399996995925903 140 131 121
-1.98679995536804199 -0.483000010251998901 0.154300004243850708 164 157 141
-1.39750003814697266 -0.480300009250640869 0.284500002861022949 163 153 135
1.14409995079040527 -0.483500003814697266 -0.0443000011146068573 200 196 176
-0.563499987125396729 0.16470000147819519 -0.354499995708465576 139 140 121
0.342000007629394531 -0.467000007629394531 0.443199992179870605 191 187 177
0.145199999213218689 0.0846000015735626221 0.102700002491474152 216 206 209
0.0292000006884336472 -0.074100002646446228 0.0399999991059303284 118 37 38
0.602599978446960449 -0.129800006747245789 -0.225199997425079346 175 165 146
1.64409995079040527 -0.490999996662139893 -0.259000003337860107 176 166 140
0.215100005269050598 0.282799988985061646 0.0342000015079975128 161 53 63
0.80540001392364502 -0.124300003051757812 -0.204199999570846558 177 169 147
-0.0467999987304210663 -0.33899998664855957 -0.300500005483627319 124 123 109
1.33550000190734863 -0.4846000075340271 -0.293399989604949951 176 164 135
0.746299982070922852 -0.338299989700317383 -0.212200000882148743 184 176 164
-0.740999996662139893 -0.469099998474121094 -0.312299996614456177 166 161 127
-1.75290000438690186 -0.481599986553192139 0.0742999985814094543 170 164 146
0.177900001406669617 -0.467000007629394531 0.385199993848800659 208 202 186
0.0538000017404556274 -0.453900009393692017 0.14440000057220459 125 55 59
1.06789994239807129 -0.481999993324279785 -0.023099999874830246 198 190 167
-1.68439996242523193 -0.483799993991851807 0.147200003266334534 164 155 132
0.123800002038478851 0.26449999213218689 0.0769999995827674866 174 65 78
-1.19459998607635498 -0.481499999761581421 0.106499999761581421 162 153 130
-0.166600003838539124 0.47630000114440918 -0.319499999284744263 114 108 91
-0.671500027179718018 0.203899994492530823 -0.378100007772445679 130 131 117
0.807799994945526123 -0.343199998140335083 -0.207699999213218689 173 160 136
-0.797299981117248535 -0.467900007963180542 -0.374700009822845459 157 145 107
1.06550002098083496 -0.484200000762939453 -0.115099996328353882 193 187 163
0.355699986219406128 -0.275799989700317383 -0.255499988794326782 120 112 93
-1.8499000072479248 -0.483000010251998901 0.191899999976158142 162 157 139
-1.44379997253417969 -0.47780001163482666 0.414299994707107544 151 144 132
0.855400025844573975 -0.481000006198883057 -0.125599995255470276 188 178 152
-0.311699986457824707 -0.206599995493888855 -0.331099987030029297 136 134 112
-0.456099987030029297 0.0820999965071678162 -0.347000002861022949 112 114 88
0.0960000008344650269 0.118000000715255737 0.0905999988317489624 166 71 80
-0.644999980926513672 -0.472200006246566772 0.436100006103515625 192 186 177
0.212200000882148743 0.22460000216960907 0.0910999998450279236 139 39 44
0.249899998307228088 0.306699991226196289 -0.0306000001728534698 165 129 134
-1.43620002269744873 -0.481599986553192139 0.340000003576278687 165 154 138
-0.716300010681152344 -0.414000004529953003 -0.397100001573562622 143 128 110
-0.147699996829032898 -0.471700012683868408 -0.239399999380111694 121 112 96
-0.519500017166137695 -0.470200002193450928 0.451299995183944702 191 188 180
-0.192800000309944153 -0.470200002193450928 0.2653999924659729 180 173 151
-0.196400001645088196 -0.471700012683868408 0.195099994540214539 185 178 153
1.27279996871948242 -0.487699985504150391 -0.0432999990880489349 189 184 159
0.10300000011920929 -0.467700004577636719 0.388399988412857056 180 169 154
0.00970000028610229492 0.17810000479221344 -0.293000012636184692 140 131 127
-0.314999997615814209 -0.475199997425079346 -0.204500004649162292 120 110 84
0.366299986839294434 -0.470099985599517822 0.306100010871887207 165 151 131
0.0579000003635883331 0.280000001192092896 -0.0231999997049570084 136 49 59
0.116400003433227539 0.115999996662139893 0.0970000028610229492 166 59 66
-0.643899977207183838 -0.473100006580352783 0.41470000147819519 182 172 155
0.0125000001862645149 -0.134100005030632019 0.00559999980032444 95 29 30
0.735599994659423828 0.0458999983966350555 -0.213499993085861206 203 197 187
-0.377000004053115845 -0.404399991035461426 -0.345899999141693115 126 123 103
0.526899993419647217 0.0842000022530555725 -0.235599994659423828 192 186 173
0.300399988889694214 0.00389999989420175552 -0.00340000004507601261 131 46 45
-0.238399997353553772 -0.389699995517730713 -0.329299986362457275 127 120 109
-0.094300001859664917 0.0142999999225139618 -0.305999994277954102 145 139 125
0.675199985504150391 -0.236300006508827209 -0.217600002884864807 186 176 155
-0.256900012493133545 -0.44519999623298645 -0.336600005626678467 134 131 120
-0.435900002717971802 -0.466399997472763062 -0.348399996757507324 115 108 80
0.913100004196166992 -0.00179999996908009052 -0.19179999828338623 186 178 162
0.501999974250793457 0.118400000035762787 -0.238999992609024048 138 128 112
0.304399996995925903 0.0350000001490116119 -0.10300000011920929 73 46 40
-0.353899985551834106 -0.475199997425079346 0.144999995827674866 217 205 180
0.859200000762939453 0.122900001704692841 -0.19750000536441803 197 189 179
0.185699999332427979 0.294499993324279785 0.014100000262260437 209 216 207
-0.734899997711181641 -0.364199995994567871 -0.385899990797042847 144 131 112
-0.0575000010430812836 0.317000001668930054 -0.305900007486343384 171 163 152
-0.268200010061264038 -0.0694999992847442627 -0.326299995183944702 126 123 101
-0.855300009250640869 -0.474799990653991699 0.39500001072883606 179 170 157
0.292600005865097046 -0.280400007963180542 -0.0753000006079673767 102 68 66
0.565500020980834961 -0.473199993371963501 -0.0122999995946884155 180 170 142
0.0507000014185905457 -0.225299999117851257 -0.155200004577636719 99 52 48
0.225500002503395081 0.143700003623962402 0.0938000008463859558 108 33 37
-0.494899988174438477 -0.476000010967254639 0.150099992752075195 185 179 160
0.0361000001430511475 -0.393299996852874756 -0.145600005984306335 103 39 41
-1.33630001544952393 -0.481299996376037598 0.0829999968409538269 160 156 130
-0.254200011491775513 -0.315699994564056396 -0.324900001287460327 154 147 127
0.628099977970123291 0.0227000005543231964 -0.223000004887580872 189 184 179
-1.07340002059936523 -0.477999985218048096 0.223100006580352783 174 163 140
0.104699999094009399 -0.0973000004887580872 0.103500001132488251 175 149 167
0.0939999967813491821 0.0551999993622303009 -0.262199997901916504 114 85 81
0.833199977874755859 -0.481000006198883057 -0.0835999995470046997 207 199 172
-0.416299998760223389 -0.476999998092651367 0.104599997401237488 178 172 146
1.49730002880096436 -0.487100005149841309 -0.358700007200241089 182 170 140
-0.303999990224838257 -0.474000006914138794 -0.163100004196166992 126 117 87
-0.756299972534179688 -0.470499992370605469 -0.289600014686584473 160 161 114
0.153200000524520874 0.388799995183944702 -0.269600003957748413 181 163 156
0.0098999999463558197 0.0866999998688697815 -0.0346999987959861755 98 55 52
0.26109999418258667 -0.336499989032745361 -0.064999997615814209 76 37 34
1.36230003833770752 -0.487699985504150391 -0.057100001722574234 189 179 155
0.251800000667572021 -0.469799995422363281 0.284900009632110596 249 231 111
0.252900004386901855 -0.467000007629394531 0.0452999994158744812 167 144 132
0.377700001001358032 -0.18410000205039978 -0.252099990844726562 127 116 91
-0.364800006151199341 -0.188899993896484375 -0.338600009679794312 127 123 104
0.30480000376701355 -0.461699992418289185 -0.253199994564056396 120 114 95
-0.310299992561340332 -0.474500000476837158 0.104199998080730438 190 182 157
-1.09580004215240479 -0.478399991989135742 0.285299986600875854 181 170 148
0.205699995160102844 -0.435099989175796509 -0.295700013637542725 103 96 84
0.0258000008761882782 -0.295700013637542725 -0.00520000001415610313 94 53 52
0.156499996781349182 0.35499998927116394 -0.02239999920129776 163 193 36
0.00590000022202730179 0.0480000004172325134 -0.29370000958442688 104 90 83
-0.385399997234344482 -0.476999998092651367 -0.0732000023126602173 128 122 100
-0.346700012683868408 -0.475899994373321533 0.0231999997049570084 166 157 130
-0.235499992966651917 0.335000008344650269 -0.326499998569488525 143 141 124
0.271100014448165894 0.416200011968612671 -0.247600004076957703 153 60 63
-1.41550004482269287 -0.480199992656707764 0.145699992775917053 173 163 135
0.791299998760223389 0.184000000357627869 -0.206599995493888855 189 180 168
0.754999995231628418 -0.478300005197525024 -0.0350000001490116119 92 89 79
0.257299989461898804 -0.184499993920326233 0.0773999989032745361 126 43 42
-0.397899985313415527 0.115900002419948578 -0.342200011014938354 104 104 88
-0.124499998986721039 -0.466699987649917603 0.0161000005900859833 211 183 43
0.207100003957748413 0.125499993562698364 0.0987000018358230591 172 80 91
-1.20840001106262207 -0.477499991655349731 0.342099994421005249 167 156 138
-0.321099996566772461 -0.174999997019767761 -0.332399994134902954 139 135 115
0.613300025463104248 0.0166999995708465576 -0.225199997425079346 187 176 156
0.223600000143051147 -0.253500014543533325 -0.271100014448165894 77 66 55
0.204799994826316833 0.229300007224082947 0.0930000022053718567 131 41 44
-0.246000006794929504 -0.0305000003427267075 -0.324099987745285034 113 108 85
0.179900005459785461 0.25339999794960022 -0.274100005626678467 105 93 76
-0.133100003004074097 -0.470800012350082397 0.465999990701675415 179 173 160
0.123099997639656067 0.290899991989135742 0.0214000009000301361 147 35 44
-0.384499996900558472 -0.476000010967254639 -0.155399993062019348 142 135 111
0.257800012826919556 -0.46799999475479126 -0.00579999992623925209 143 133 118
0.295700013637542725 0.145099997520446777 0.0221999995410442352 102 37 41
0.288300007581710815 0.415199995040893555 -0.261299997568130493 137 129 111
0.374099999666213989 -0.398299992084503174 -0.194999992847442627 111 67 66
0.314099997282028198 0.174600005149841309 -0.257600009441375732 109 95 77
0.415100008249282837 0.27649998664855957 -0.251899987459182739 162 150 138
-1.36349999904632568 -0.481000006198883057 0.133499994874000549 171 164 139
0.492399990558624268 0.0648000016808509827 -0.239099994301795959 174 163 147
-0.251100003719329834 -0.472000002861022949 -0.196500003337860107 131 125 96
0.314900010824203491 -0.145999997854232788 -0.258700013160705566 116 104 89
-0.873399972915649414 -0.476000010967254639 0.255100011825561523 188 177 156
0.288300007581710815 -0.379999995231628418 -0.135199993848800659 92 34 38
-1.38279998302459717 -0.481000006198883057 0.131699994206428528 173 164 135
0.298099994659423828 -0.20090000331401825 -0.00419999985024333 110 22 30
0.596700012683868408 0.0966999977827072144 -0.228699997067451477 169 158 138
0.839600026607513428 0.0157999992370605469 -0.20010000467300415 218 211 207
0.311300009489059448 0.237499997019767761 -0.172199994325637817 133 135 100
-0.0408999994397163391 -0.328299999237060547 -0.0788000002503395081 47 52 48
0.461299985647201538 -0.470699995756149292 0.101700000464916229 154 142 117
1.18739998340606689 -0.4846000075340271 -0.054900001734495163 196 189 170
0.0834999978542327881 -0.238499999046325684 -0.280600011348724365 91 47 47
-0.57630002498626709 0.231800004839897156 -0.369800001382827759 132 133 119
1.11399996280670166 -0.460599988698959351 -0.243799999356269836 150 148 133
0.263099998235702515 -0.225700005888938904 0.0727000012993812561 127 47 48
-0.0764999985694885254 -0.471700012683868408 0.585699975490570068 198 188 172
-0.0775000005960464478 -0.465400010347366333 -0.304600000381469727 129 126 103
-0.221300005912780762 -0.470999985933303833 0.0947000011801719666 194 185 160
1.36559998989105225 -0.486499994993209839 -0.285199999809265137 174 161 128
0.146300002932548523 -0.312099993228912354 0.0926000028848648071 137 43 52
0.0148999998345971107 -0.185900002717971802 -0.0784000009298324585 84 38 41
0.265899986028671265 0.295199990272521973 -0.266400009393692017 153 142 119
0.287000000476837158 -0.340700000524520874 0.0242999996989965439 117 15 28
1.74880003929138184 -0.494599997997283936 -0.316900014877319336 169 155 126
0.417699992656707764 0.0625 -0.248999997973442078 152 140 118
-0.943499982357025146 -0.476700007915496826 0.355300009250640869 171 162 144
0.814300000667572021 -0.0256999991834163666 -0.202700003981590271 190 181 163
-0.533699989318847656 -0.472099989652633667 0.285699993371963501 189 178 149
0.208399996161460876 0.336899995803833008 -0.113300003111362457 126 137 96
-0.329800009727478027 -0.474599987268447876 0.160500004887580872 200 190 165
0.274500012397766113 -0.333600014448165894 0.0152000002562999725 111 38 41
0.184400007128715515 0.203799992799758911 -0.272500008344650269 100 91 76
-1.11570000648498535 -0.480500012636184692 0.0789000019431114197 169 165 151
-0.325199991464614868 -0.472400009632110596 0.376100003719329834 191 185 163
0.654399991035461426 -0.144700005650520325 -0.218999996781349182 180 169 151
-0.471700012683868408 -0.307300001382827759 -0.351999998092651367 116 114 93
0.535099983215332031 0.282499998807907104 -0.23659999668598175 214 210 207
0.213300004601478577 0.444200009107589722 -0.276600003242492676 212 209 212
-0.106499999761581421 0.183699995279312134 -0.308499991893768311 148 138 136
0.123400002717971802 -0.465400010347366333 -0.27369999885559082 122 120 104
-0.884999990463256836 -0.45410001277923584 -0.482499986886978149 141 132 118
0.914799988269805908 -0.464199990034103394 -0.192000001668930054 99 95 93
0.0762000009417533875 0.0392999984323978424 -0.287900000810623169 108 100 95
0.301600009202957153 -0.132100000977516174 -0.0684999972581863403 80 35 31
-0.95560002326965332 -0.476000010967254639 0.28690001368522644 189 178 160
-0.0160000007599592209 -0.410699993371963501 -0.0643000006675720215 48 45 44
-0.535600006580352783 -0.475600004196166992 -0.343100011348724365 107 100 76
-0.109899997711181641 -0.470999985933303833 0.350100010633468628 190 181 165
-0.556100010871887207 -0.305999994277954102 -0.364600002765655518 121 119 87
0.274500012397766113 -0.142499998211860657 -0.177200004458427429 108 62 60
0.764500021934509277 -0.477999985218048096 -0.0142000000923871994 42 45 46
-0.307500004768371582 -0.235499992966651917 -0.330599993467330933 145 141 119
0.422199994325637817 -0.337300002574920654 -0.247199997305870056 138 129 116
0.309500008821487427 0.16550000011920929 -0.157800003886222839 78 58 49
-0.744599997997283936 -0.475400000810623169 0.332899987697601318 185 176 156
-0.935599982738494873 -0.476700007915496826 0.295800000429153442 182 171 153
0.049100000411272049 0.105899997055530548 0.0560999996960163116 122 47 44
0.451000005006790161 -0.473300009965896606 0.453900009393692017 195 188 175
-0.323700010776519775 -0.426299989223480225 -0.341199994087219238 119 113 96
-0.238399997353553772 0.0803999975323677063 -0.323399990797042847 144 142 114
-0.0756999999284744263 -0.470899999141693115 0.462700009346008301 174 167 150
-0.299199998378753662 0.0800999999046325684 -0.330599993467330933 116 114 91
-0.0755999982357025146 -0.455300003290176392 -0.317499995231628418 146 145 129
0.0302000008523464203 0.258899986743927002 -0.0487999990582466125 111 35 39
-0.352600008249282837 -0.219099998474121094 -0.33680000901222229 132 125 106
-1.12450003623962402 -0.479000002145767212 0.203199997544288635 183 173 147
0.354200005531311035 -0.467900007963180542 0.425900012254714966 171 163 147
0.140000000596046448 0.13330000638961792 0.103200003504753113 113 87 124
-1.52680003643035889 -0.479400008916854858 0.26660001277923584 163 154 135
0.0640999972820281982 -0.0821999981999397278 0.0812000036239624023 212 222 222
0.173600003123283386 -0.0241000000387430191 0.109999999403953552 190 192 202
-0.89590001106262207 -0.461899995803833008 -0.422199994325637817 157 151 133
0.959999978542327881 -0.329800009727478027 -0.190999999642372131 115 115 111
0.347600013017654419 -0.433400005102157593 -0.00419999985024333 70 50 46
-1.857200026512146 -0.483000010251998901 0.15270000696182251 163 165 143
0.0401999987661838531 -0.329299986362457275 -0.0822999998927116394 87 47 43
0.336299985647201538 -0.275700002908706665 -0.258599996566772461 107 98 85
0.304899990558624268 -0.467400014400482178 -0.164000004529953003 83 75 62
-0.166199997067451477 -0.470499992370605469 -0.0263999998569488525 172 155 93
0.783800005912780762 0.241899996995925903 -0.205699995160102844 187 177 162
0.0864000022411346436 -0.33809998631477356 0.0575999990105628967 92 71 59
0.146699994802474976 0.255400002002716064 0.0886000022292137146 185 76 97
0.596099972724914551 -0.241500005125999451 -0.225899994373321533 170 160 142
-0.105200000107288361 -0.469599992036819458 0.295300006866455078 177 169 155
0.0395000018179416656 0.162300005555152893 -0.196199998259544373 139 122 99
1.89409995079040527 -0.464300006628036499 -0.472499996423721313 143 147 140
-0.166800007224082947 -0.469599992036819458 0.473800003528594971 187 182 166
0.349999994039535522 -0.402999997138977051 -0.124300003051757812 42 22 19
-0.975899994373321533 -0.479299992322921753 0.136399999260902405 190 183 155
0.409099996089935303 -0.469999998807907104 0.144899994134902954 176 167 145
0.0948999971151351929 -0.243900001049041748 -0.256000012159347534 87 56 51
0.0502000004053115845 -0.380800008773803711 -0.145899996161460876 79 22 25
0.0305000003427267075 -0.469799995422363281 -0.20090000331401825 111 49 50
0.311800003051757812 0.204099997878074646 -0.145999997854232788 108 47 43
1.30519998073577881 -0.487199991941452026 -0.154499992728233337 188 175 148
0.0901999995112419128 0.224999994039535522 -0.281399995088577271 120 101 89
-0.575399994850158691 -0.333999991416931152 -0.36730000376701355 119 117 82
0.274199992418289185 -0.465999990701675415 0.457199990749359131 177 169 154
0.824500024318695068 -0.174600005149841309 -0.202600002288818359 187 180 164
0.228799998760223389 0.238800004124641418 -0.221799999475479126 174 180 117
0.855899989604949951 -0.155799999833106995 -0.195700004696846008 178 170 154
0.338899999856948853 -0.392599999904632568 -0.0581000000238418579 13 9 15
0.0220999997109174728 -0.298400014638900757 -0.208199992775917053 107 67 57
0.0410000011324882507 -0.0745000019669532776 0.0568999983370304108 118 29 36
-1.0372999906539917 -0.480500012636184692 0.0895000025629997253 173 171 145
0.787100017070770264 -0.475899994373321533 0.133000001311302185 195 188 162
0.193100005388259888 0.254000008106231689 -0.272599995136260986 125 116 95
0.0126999998465180397 -0.0256999991834163666 -0.0142000000923871994 107 26 23
-0.61790001392364502 -0.473699986934661865 -0.248899996280670166 158 155 120
0.628400027751922607 -0.444499999284744263 -0.238000005483627319 151 141 125
0.00520000001415610313 -0.252900004386901855 -0.146400004625320435 24 25 22
0.344099998474121094 -0.447200000286102295 -0.0219999998807907104 55 44 43
1.00360000133514404 -0.482199996709823608 0.0516000017523765564 203 199 175
0.514299988746643066 0.447899997234344482 -0.24060000479221344 181 177 152
0.23659999668598175 -0.124099999666213989 0.0930000022053718567 128 61 61
0.0469000004231929779 -0.0152000002562999725 -0.288500010967254639 120 108 100
0.346500009298324585 -0.466100007295608521 0.00340000004507601261 143 126 113
0.557799994945526123 -0.473199993371963501 0.124799996614456177 177 167 147
0.0764999985694885254 -0.143000006675720215 -0.213699996471405029 90 30 31
0.612900018692016602 0.236000001430511475 -0.228599995374679565 181 173 152
0.61510002613067627 0.101700000464916229 -0.226999998092651367 180 170 156
0.30820000171661377 0.10130000114440918 -0.0410000011324882507 104 39 39
0.492799997329711914 0.111800000071525574 -0.239800006151199341 173 162 146
0.22120000422000885 -0.225999996066093445 0.104199998080730438 134 44 51
0.352100014686584473 0.432900011539459229 -0.262100011110305786 161 154 144
0.344599992036819458 -0.46459999680519104 -0.165399998426437378 76 68 60
0.694999992847442627 -0.476500004529953003 0.0645999982953071594 185 177 152
0.284299999475479126 -0.467900007963180542 0.373299986124038696 171 164 151
-0.385300010442733765 -0.472200006246566772 0.292699992656707764 202 195 171
0.011900000274181366 -0.354299992322921753 -0.0641999989748001099 82 29 30
0.198899999260902405 0.242599993944168091 -0.27000001072883606 112 105 88
-0.130300000309944153 -0.198200002312660217 -0.30970001220703125 152 146 137
0.430599987506866455 0.0675999969244003296 -0.246999993920326233 176 167 158
0.599600017070770264 0.226799994707107544 -0.229800000786781311 192 183 164
-1.16400003433227539 -0.476799994707107544 0.365700006484985352 176 165 148
0.00930000003427267075 0.115000002086162567 -0.0449000000953674316 82 32 29
-0.553200006484985352 -0.471300005912780762 0.435000002384185791 180 170 156
1.27119994163513184 -0.486900001764297485 -0.0643000006675720215 190 186 164
0.674199998378753662 -0.476999998092651367 0.265700012445449829 187 180 161
0.401199996471405029 -0.469999998807907104 0.168599992990493774 177 167 147
0.393500000238418579 -0.469000011682510376 0.449099987745285034 200 191 178
0.466300010681152344 -0.472000002861022949 0.373299986124038696 194 187 176
-0.593299984931945801 -0.362800002098083496 -0.369599997997283936 129 127 87
-1.50339996814727783 -0.483300000429153442 0.0942000001668930054 168 158 132
-0.381500005722045898 -0.324999988079071045 -0.341899991035461426 139 135 113
0.585500001907348633 0.0285000000149011612 -0.2289000004529953 198 191 171
0.303900003433227539 0.166199997067451477 -0.258500009775161743 100 83 66
0.0952999964356422424 -0.469000011682510376 0.0346000008285045624 177 165 146
0.125 -0.459800004959106445 0.162400007247924805 136 48 53
-1.21529996395111084 -0.480500012636184692 0.396299988031387329 159 149 136
0.155100002884864807 0.493900001049041748 -0.284999996423721313 184 179 166
0.330500006675720215 -0.194999992847442627 -0.258500009775161743 128 124 115
-0.259000003337860107 0.212799996137619019 -0.327600002288818359 139 138 121
0.277399986982345581 -0.337799996137619019 -0.0136000001803040504 101 57 51
0.308699995279312134 -0.0157999992370605469 -0.127000004053115845 121 24 28
0.844200015068054199 -0.190400004386901855 -0.199499994516372681 187 183 168
-1.33640003204345703 -0.47999998927116394 0.37220001220703125 178 165 149
-0.663399994373321533 -0.470299988985061646 -0.245800003409385681 168 159 129
0.0654999986290931702 0.281399995088577271 -0.00480000022798776627 139 34 27
0.0829999968409538269 -0.468199998140335083 0.45410001277923584 185 176 154
0.534500002861022949 -0.194999992847442627 -0.233400002121925354 168 159 152
0.0697000026702880859 -0.313899993896484375 -0.279100000858306885 85 67 62
0.357400000095367432 -0.336499989032745361 -0.154499992728233337 98 73 62
2.04550004005432129 -0.499099999666213989 -0.430700004100799561 123 119 96
0.289799988269805908 -0.341600000858306885 -0.00329999998211860657 113 14 23
0.010599999688565731 -0.249500006437301636 -0.0617000013589859009 69 11 14
0.074400000274181366 -0.0421999990940093994 -0.285199999809265137 119 108 93
0.294900000095367432 0.324800014495849609 -0.113499999046325684 149 147 138
0.6930999755859375 -0.455399990081787109 -0.229399994015693665 169 163 148
1.35440003871917725 -0.486900001764297485 -0.31589999794960022 180 174 150
0.911800026893615723 -0.149700000882148743 -0.189999997615814209 157 147 137
0.134299993515014648 0.291299998760223389 0.0254999995231628418 145 45 53
0.294499993324279785 0.056699998676776886 0.0124000003561377525 111 75 73
-1.98469996452331543 -0.486999988555908203 0.223399996757507324 176 166 151
0.6776999831199646 0.173399999737739563 -0.220699995756149292 187 178 158
0.0146000003442168236 0.0851999968290328979 -0.293799996376037598 114 103 101
0.310900002717971802 0.20520000159740448 -0.0452999994158744812 96 27 30
0.145600005984306335 -0.467000007629394531 0.433099985122680664 178 168 152
0.333799988031387329 -0.376800000667572021 -0.0353000015020370483 30 9 13
0.0763999968767166138 -0.133799999952316284 0.0922000035643577576 147 98 92
-0.515299975872039795 0.166600003838539124 -0.34790000319480896 66 75 46
-0.203299999237060547 -0.395599991083145142 -0.333200007677078247 132 130 119
0.730799973011016846 -0.124700002372264862 -0.212699994444847107 183 176 161
-0.646300017833709717 -0.474200010299682617 -0.312200009822845459 164 159 125
-0.356700003147125244 0.265100002288818359 -0.342599987983703613 134 132 121
-0.808600008487701416 -0.464500010013580322 -0.423400014638900757 179 169 145
-0.234400004148483276 -0.472000002861022949 -0.173099994659423828 149 140 119
1.33399999141693115 -0.486000001430511475 -0.267100006341934204 186 176 148
-0.0355999991297721863 -0.308299988508224487 -0.296700000762939453 111 109 99
0.36390000581741333 -0.257600009441375732 -0.0645999982953071594 64 61 60
0.166099995374679565 -0.470999985933303833 0.566200017929077148 0 0 0
-0.183599993586540222 -0.471300005912780762 0.199100002646446228 125 119 103
-0.00910000037401914597 -0.474900007247924805 0.587100028991699219 185 180 159
-0.675700008869171143 -0.474200010299682617 0.404599994421005249 177 167 147
0.0190999992191791534 0.242400005459785461 -0.0432999990880489349 102 27 30
-0.13439999520778656 -0.301899999380111694 -0.311399996280670166 161 161 149
-0.0104999998584389687 0.319299995899200439 -0.299600005149841309 160 146 141
0.0259000007063150406 0.455399990081787109 -0.296900004148483276 187 185 194
-0.976000010967254639 -0.476999998092651367 0.234999999403953552 179 171 150
0.00620000017806887627 -0.472000002861022949 0.545599997043609619 179 172 153
1.83659994602203369 -0.498100012540817261 -0.42489999532699585 166 153 126
0.224099993705749512 -0.459500014781951904 -0.278400003910064697 122 117 104
0.991199970245361328 -0.362199991941452026 -0.193399995565414429 151 148 138
-1.67299997806549072 -0.480899989604949951 0.254200011491775513 158 150 131
0.48059999942779541 -0.143099993467330933 -0.23999999463558197 156 146 131
-0.577199995517730713 -0.252499997615814209 -0.363000005483627319 132 115 84
-0.574500024318695068 -0.166099995374679565 -0.358900010585784912 133 127 98
-0.696099996566772461 -0.42089998722076416 -0.390500009059906006 139 133 109
-0.601199984550476074 -0.47290000319480896 0.428000003099441528 187 178 161
-1.52600002288818359 -0.483000010251998901 0.332700014114379883 166 155 137
-0.443800002336502075 0.143099993467330933 -0.345899999141693115 70 76 51
0.207800000905990601 0.48739999532699585 -0.278899997472763062 199 193 184
0.0188999995589256287 0.186000004410743713 -0.290699988603591919 145 142 148
-1.05460000038146973 -0.479799985885620117 0.0619999989867210388 186 182 170
0.339399993419647217 -0.405200004577636719 -0.0544999986886978149 5 6 1
0.255600005388259888 0.18580000102519989 -0.261799991130828857 122 107 92
-1.49469995498657227 -0.48120000958442688 0.314999997615814209 165 154 136
0.0219999998807907104 -0.256000012159347534 -0.0948999971151351929 123 72 67
-0.0675999969244003296 -0.469000011682510376 0.173800006508827209 190 182 159
0.721199989318847656 0.225899994373321533 -0.212799996137619019 186 175 165
0.4375 0.392800003290176392 -0.249500006437301636 199 195 193
0.105700001120567322 -0.472099989652633667 0.59299999475479126 0 0 0
-0.261500000953674316 -0.140900000929832458 -0.325599998235702515 144 141 120
-0.26320001482963562 -0.472200006246566772 0.0641999989748001099 192 181 153
0.0161000005900859833 -0.344199985265731812 -0.0750000029802322388 43 18 15
-0.155100002884864807 -0.471599996089935303 0.39379999041557312 180 168 149
-0.334399998188018799 -0.468300014734268188 0.46459999680519104 183 177 167
1.40910005569458008 -0.486499994993209839 -0.251300007104873657 185 173 145
0.0320999994874000549 0.146200001239776611 0.037200000137090683 47 38 38
-1.17219996452331543 -0.481599986553192139 0.116700001060962677 163 155 131
0.00380000006407499313 -0.469000011682510376 0.403299987316131592 189 182 159
-0.335599988698959351 -0.472000002861022949 0.498899996280670166 59 58 57
-1.02600002288818359 -0.480500012636184692 0.112800002098083496 189 178 152
0.10559999942779541 -0.467000007629394531 0.264999985694885254 162 145 39
-0.893700003623962402 -0.477600008249282837 0.182600006461143494 186 178 152
-0.0839999988675117493 -0.247799992561340332 -0.303499996662139893 140 135 118
0.115299999713897705 0.0847999975085258484 0.0983999967575073242 185 96 104
0.395700007677078247 -0.314999997615814209 -0.249500006437301636 120 112 86
-0.766300022602081299 -0.467400014400482178 -0.378800004720687866 158 145 119
0.774600028991699219 0.204899996519088745 -0.207399994134902954 190 182 169
1.19340002536773682 -0.487100005149841309 -0.0140000004321336746 192 187 167
-0.0441999994218349457 -0.464800000190734863 0.0702000036835670471 142 126 116
0.302700012922286987 -0.0952999964356422424 -0.0639000013470649719 101 17 18
0.843800008296966553 0.189099997282028198 -0.202800005674362183 214 209 210
0.236200004816055298 -0.467200011014938354 0.518400013446807861 181 169 152
0.145999997854232788 0.446500003337860107 -0.285699993371963501 180 171 159
1.45319998264312744 -0.486999988555908203 -0.274599999189376831 198 185 154
0.204099997878074646 -0.467000007629394531 0.37439998984336853 170 164 149
-0.7401999831199646 -0.469799995422363281 -0.269800007343292236 160 155 121
0.56529998779296875 -0.474999994039535522 -0.116099998354911804 181 172 147
0.495900005102157593 -0.474200010299682617 -0.0956000015139579773 181 169 146
0.29309999942779541 -0.122699998319149017 -0.160699993371963501 126 87 85
-1.67700004577636719 -0.482300013303756714 0.216700002551078796 178 168 144
-0.0256999991834163666 0.499199986457824707 -0.30419999361038208 128 127 114
0.572700023651123047 -0.277500003576278687 -0.229800000786781311 176 168 147
0.313499987125396729 0.16470000147819519 -0.0456999987363815308 102 33 34
-0.214000001549720764 -0.471300005912780762 -0.166099995374679565 149 140 111
0.26449999213218689 -0.466600000858306885 -0.235100001096725464 120 111 94
0.141699999570846558 0.316399991512298584 -0.282499998807907104 154 146 131
-1.6435999870300293 -0.481799989938735962 0.157299995422363281 166 158 136
0.694899976253509521 -0.135700002312660217 -0.215800002217292786 184 172 154
1.23860001564025879 -0.489199995994567871 -0.0275999996811151505 198 193 173
1.65450000762939453 -0.492399990558624268 -0.354200005531311035 180 165 132
-0.233500003814697266 -0.00700000021606683731 -0.322100013494491577 143 140 118
0.391699999570846558 -0.104699999094009399 -0.25060001015663147 127 117 96
-1.68620002269744873 -0.481900006532669067 0.224700003862380981 173 165 144
-0.505699992179870605 -0.472999989986419678 0.331800013780593872 189 177 153
0.391400009393692017 -0.272700011730194092 -0.122900001704692841 45 46 42
