1.560000032186508179e-01 -2.138999998569488525e-01 -2.639000117778778076e-01
1.906100034713745117e+00 -5.026000142097473145e-01 -4.023000001907348633e-01
8.161000013351440430e-01 -1.644999980926513672e-01 -2.034000009298324585e-01
1.250000018626451492e-02 3.449999913573265076e-02 -5.490000173449516296e-02
-5.248000025749206543e-01 9.640000015497207642e-02 -3.492999970912933350e-01
-6.848999857902526855e-01 -4.406000077724456787e-01 -3.844000101089477539e-01
2.381000071763992310e-01 2.960000038146972656e-01 -9.449999779462814331e-02
3.934000134468078613e-01 -4.237999916076660156e-01 -6.520000100135803223e-02
2.309999987483024597e-02 -3.450999855995178223e-01 -2.565999925136566162e-01
-2.626999914646148682e-01 2.462999969720840454e-01 -3.278999924659729004e-01
8.730999827384948730e-01 -4.772999882698059082e-01 6.150000169873237610e-02
-1.472000032663345337e-01 2.748000025749206543e-01 -3.156000077724456787e-01
2.354000061750411987e-01 -2.437999993562698364e-01 -2.689999938011169434e-01
9.437999725341796875e-01 -4.638999998569488525e-01 -1.852000057697296143e-01
-3.115999996662139893e-01 -4.135000109672546387e-01 -3.393000066280364990e-01
8.000000379979610443e-03 -2.442999929189682007e-01 -5.200000107288360596e-02
-7.016000151634216309e-01 -3.323999941349029541e-01 -3.749000132083892822e-01
-1.480000000447034836e-02 -4.546999931335449219e-01 -2.937000095844268799e-01
8.399999886751174927e-02 -4.643000066280364990e-01 2.425000071525573730e-01
4.973999857902526855e-01 -4.758000075817108154e-01 -1.483999937772750854e-01
-8.828999996185302734e-01 -4.779999852180480957e-01 1.580999940633773804e-01
-4.659999907016754150e-02 2.908000051975250244e-01 -3.039000034332275391e-01
-1.959599971771240234e+00 -4.869999885559082031e-01 2.578000128269195557e-01
7.943000197410583496e-01 -4.140999913215637207e-01 -2.162999957799911499e-01
-1.317999958992004395e-01 9.260000288486480713e-02 -3.113000094890594482e-01
8.956000208854675293e-01 -4.790000021457672119e-01 1.202000007033348083e-01
9.579999744892120361e-02 -4.614000022411346436e-01 1.259000003337860107e-01
-3.657999932765960693e-01 -3.847000002861022949e-01 -3.438999950885772705e-01
-4.663999974727630615e-01 -4.113999903202056885e-01 -3.583000004291534424e-01
-2.806999981403350830e-01 -1.787000000476837158e-01 -3.273999989032745361e-01
1.634999960660934448e-01 -2.881000041961669922e-01 -2.640999853610992432e-01
1.023499965667724609e+00 -4.844999909400939941e-01 -1.447000056505203247e-01
1.366700053215026855e+00 -4.864999949932098389e-01 -2.249999940395355225e-01
5.551999807357788086e-01 -4.720000177621841431e-02 -2.316000014543533325e-01
6.729999929666519165e-02 -3.325000107288360596e-01 4.479999840259552002e-02
-1.467999964952468872e-01 -2.664999961853027344e-01 -3.106000125408172607e-01
6.409999728202819824e-02 -4.747000038623809814e-01 6.349999904632568359e-01
-7.961999773979187012e-01 -4.769999980926513672e-01 1.855999976396560669e-01
9.542000293731689453e-01 -4.810999929904937744e-01 1.272000074386596680e-01
2.527000010013580322e-01 4.479999840259552002e-02 7.280000299215316772e-02
1.868000030517578125e-01 2.854000031948089600e-01 -2.084999978542327881e-01
7.789999991655349731e-02 -1.380999982357025146e-01 -2.242999970912933350e-01
-1.025099992752075195e+00 -4.776999950408935547e-01 2.743000090122222900e-01
1.396999955177307129e+00 -4.880999922752380371e-01 -3.348999917507171631e-01
2.158000022172927856e-01 2.352000027894973755e-01 -2.655000090599060059e-01
2.984000146389007568e-01 2.246000021696090698e-01 1.830000057816505432e-02
-5.509999990463256836e-01 -1.640000045299530029e-01 -3.109999895095825195e-01
-5.141999721527099609e-01 -2.646000087261199951e-01 -3.573000133037567139e-01
-1.124500036239624023e+00 -4.805000126361846924e-01 8.900000154972076416e-02
-1.820700049400329590e+00 -4.826000034809112549e-01 1.299999952316284180e-01
1.126199960708618164e+00 -4.844000041484832764e-01 -2.046999931335449219e-01
7.760999798774719238e-01 -4.745000004768371582e-01 9.759999811649322510e-02
-1.295699954032897949e+00 -4.796000123023986816e-01 2.964000105857849121e-01
6.866999864578247070e-01 -2.782999873161315918e-01 -2.170999944210052490e-01
6.904000043869018555e-01 -1.648000031709671021e-01 -2.162999957799911499e-01
-9.229000210762023926e-01 -4.776000082492828369e-01 3.483000099658966064e-01
1.460000034421682358e-02 -4.679999947547912598e-01 3.364999890327453613e-01
8.420000225305557251e-02 2.028000056743621826e-01 -2.311999946832656860e-01
3.012999892234802246e-01 -3.415000140666961670e-01 -1.536000072956085205e-01
5.340999960899353027e-01 -2.657999992370605469e-01 -2.335000038146972656e-01
8.946999907493591309e-01 -8.259999752044677734e-02 -1.930000036954879761e-01
2.906999886035919189e-01 -2.637999951839447021e-01 1.319999992847442627e-02
-1.105000004172325134e-01 1.889999955892562866e-01 -3.091000020503997803e-01
3.592000007629394531e-01 -3.740000128746032715e-01 -1.660999953746795654e-01
-5.911999940872192383e-01 -2.088000029325485229e-01 -3.267999887466430664e-01
-1.433999985456466675e-01 -1.538999974727630615e-01 -3.111999928951263428e-01
1.539999991655349731e-02 -1.257999986410140991e-01 -7.720000296831130981e-02
7.143999934196472168e-01 5.570000037550926208e-02 -2.161000072956085205e-01
6.054999828338623047e-01 -4.749999940395355225e-01 1.898999959230422974e-01
7.639999687671661377e-02 2.527000010013580322e-01 6.219999864697456360e-02
1.853999942541122437e-01 -4.677000045776367188e-01 5.232999920845031738e-01
-1.704599976539611816e+00 -4.837000072002410889e-01 3.265999853610992432e-01
1.774700045585632324e+00 -4.950999915599822998e-01 -2.854999899864196777e-01
-5.370000004768371582e-02 8.590000122785568237e-02 -3.019999861717224121e-01
-2.469999939203262329e-01 -4.541999995708465576e-01 -3.353999853134155273e-01
6.134999990463256836e-01 -4.771000146865844727e-01 3.030000030994415283e-01
1.233700037002563477e+00 -4.841000139713287354e-01 -2.264000028371810913e-01
5.436999797821044922e-01 -1.580999940633773804e-01 -2.318000048398971558e-01
1.098000034689903259e-01 -2.169999927282333374e-01 1.119000017642974854e-01
5.640000104904174805e-02 -2.360000014305114746e-01 -1.729999929666519165e-01
2.930999994277954102e-01 -2.723000049591064453e-01 -8.120000362396240234e-02
3.046000003814697266e-01 1.418000012636184692e-01 -2.599000036716461182e-01
3.032999932765960693e-01 -1.666000038385391235e-01 -1.411000043153762817e-01
2.827000021934509277e-01 -4.670000076293945312e-01 -3.510000184178352356e-02
1.778499960899353027e+00 -4.966000020503997803e-01 -3.986000120639801025e-01
-7.731000185012817383e-01 -4.706999957561492920e-01 -3.231999874114990234e-01
-5.450000166893005371e-01 -4.729999899864196777e-01 3.364999890327453613e-01
-1.504500031471252441e+00 -4.805999994277954102e-01 1.250000000000000000e-01
3.226999938488006592e-01 1.345999985933303833e-01 -1.343999952077865601e-01
-4.943999946117401123e-01 1.389999967068433762e-02 -3.479000031948089600e-01
6.157000064849853516e-01 -4.769999980926513672e-01 -1.737000048160552979e-01
-3.170000016689300537e-02 4.451999962329864502e-01 -3.030999898910522461e-01
-9.887999892234802246e-01 -4.779999852180480957e-01 1.909999996423721313e-01
2.208999991416931152e-01 -2.554999887943267822e-01 1.030000001192092896e-01
-9.510000050067901611e-02 -7.469999790191650391e-02 -3.057999908924102783e-01
4.034000039100646973e-01 -4.657000005245208740e-01 -2.166000008583068848e-01
6.923999786376953125e-01 -4.781000018119812012e-01 -9.619999676942825317e-02
7.559999823570251465e-02 6.710000336170196533e-02 8.190000057220458984e-02
-6.557000279426574707e-01 -4.745000004768371582e-01 3.869999945163726807e-01
9.610999822616577148e-01 -4.819999933242797852e-01 -7.890000194311141968e-02
2.870000004768371582e-01 6.469999998807907104e-02 2.999999932944774628e-02
-2.419999986886978149e-02 -2.495000064373016357e-01 -2.946999967098236084e-01
2.384999990463256836e-01 -3.149000108242034912e-01 5.799999833106994629e-02
-4.577000141143798828e-01 -8.470000326633453369e-02 -3.495999872684478760e-01
6.047999858856201172e-01 1.238999962806701660e-01 -2.280000001192092896e-01
5.878999829292297363e-01 -4.754999876022338867e-01 -1.243999972939491272e-01
-1.905000060796737671e-01 -4.690000116825103760e-01 4.878999888896942139e-01
3.860999941825866699e-01 -4.708000123500823975e-01 4.853999912738800049e-01
-4.365000128746032715e-01 2.937000095844268799e-01 -3.551000058650970459e-01
-1.175199985504150391e+00 -4.792000055313110352e-01 3.052999973297119141e-01
-3.305000066757202148e-01 2.919999957084655762e-01 -3.391000032424926758e-01
7.121999859809875488e-01 -4.769999980926513672e-01 2.827999889850616455e-01
-1.496299982070922852e+00 -4.862999916076660156e-01 1.410000026226043701e-02
-1.462000012397766113e-01 1.453000009059906006e-01 -3.129999935626983643e-01
3.830000013113021851e-02 3.747000098228454590e-01 -2.887000143527984619e-01
2.150000073015689850e-02 4.869999885559082031e-01 -2.980999946594238281e-01
3.009999990463256836e-01 -1.748999953269958496e-01 -8.179999887943267822e-02
1.055999994277954102e-01 -3.619999885559082031e-01 -1.974000036716461182e-01
-3.871000111103057861e-01 -4.760000109672546387e-01 1.526000052690505981e-01
1.132000014185905457e-01 -4.726000130176544189e-01 6.029000282287597656e-01
5.358999967575073242e-01 2.178999930620193481e-01 -2.356999963521957397e-01
-3.343999981880187988e-01 1.776999980211257935e-01 -3.362999856472015381e-01
3.086000084877014160e-01 -6.599999964237213135e-02 -1.255999952554702759e-01
-1.523100018501281738e+00 -4.810000061988830566e-01 2.375999987125396729e-01
8.027999997138977051e-01 -4.745000004768371582e-01 1.756999939680099487e-01
4.544999897480010986e-01 1.010000035166740417e-01 -2.456000000238418579e-01
-7.590000033378601074e-01 -4.756999909877777100e-01 2.257000058889389038e-01
1.641999930143356323e-01 -1.578000038862228394e-01 -2.714999914169311523e-01
-3.889999911189079285e-02 -4.250999987125396729e-01 -1.477999985218048096e-01
7.360000163316726685e-02 4.480000138282775879e-01 -2.933999896049499512e-01
-2.157000005245208740e-01 -4.709999859333038330e-01 5.689999833703041077e-02
1.713099956512451172e+00 -4.939000010490417480e-01 -3.057000041007995605e-01
-4.647000133991241455e-01 -4.722999930381774902e-01 3.355000019073486328e-01
1.308999955654144287e-01 -4.670000076293945312e-01 1.946000009775161743e-01
2.169000059366226196e-01 4.205999970436096191e-01 -2.347999960184097290e-01
3.077000081539154053e-01 1.173999980092048645e-01 -2.930000051856040955e-02
3.542999923229217529e-01 -2.152999937534332275e-01 -2.556000053882598877e-01
-3.472999930381774902e-01 -2.460999935865402222e-01 -3.368999958038330078e-01
-1.565000057220458984e+00 -4.828000068664550781e-01 5.490000173449516296e-02
-6.165000200271606445e-01 -4.751999974250793457e-01 -3.370999991893768311e-01
6.155999898910522461e-01 -3.463000059127807617e-01 -2.272000014781951904e-01
-4.744000136852264404e-01 -3.346000015735626221e-01 -3.524000048637390137e-01
-4.273999929428100586e-01 -4.779999852180480957e-01 -8.699999749660491943e-02
-9.678000211715698242e-01 -4.733999967575073242e-01 4.514999985694885254e-01
3.648000061511993408e-01 1.627999991178512573e-01 -2.561999857425689697e-01
5.156999826431274414e-01 3.955000042915344238e-01 -2.402999997138977051e-01
2.581000030040740967e-01 -3.021999895572662354e-01 -1.424999982118606567e-01
-6.639999896287918091e-02 -4.627999961376190186e-01 -3.043999969959259033e-01
3.542000055313110352e-01 -4.433000087738037109e-01 -1.093000024557113647e-01
2.360000088810920715e-02 2.328000068664550781e-01 -1.918999999761581421e-01
2.897999882698059082e-01 -3.416000008583068848e-01 -3.299999982118606567e-03
2.748999893665313721e-01 -3.774000108242034912e-01 -1.220000013709068298e-01
1.863800048828125000e+00 -3.862999975681304932e-01 -4.745999872684478760e-01
-3.299999982118606567e-02 3.887999951839447021e-01 -3.037000000476837158e-01
1.151999980211257935e-01 -6.430000066757202148e-02 1.057000011205673218e-01
7.542999982833862305e-01 2.457000017166137695e-01 -2.092999964952468872e-01
1.053099989891052246e+00 -4.860999882221221924e-01 1.041999980807304382e-01
8.190000057220458984e-02 -7.869999855756759644e-02 -2.274000048637390137e-01
8.169999718666076660e-02 -2.050999999046325684e-01 -2.425000071525573730e-01
2.369000017642974854e-01 1.527000069618225098e-01 8.839999884366989136e-02
9.474999904632568359e-01 -2.495999932289123535e-01 -1.896000057458877563e-01
3.388999998569488525e-01 -3.925999999046325684e-01 -5.810000002384185791e-02
7.750000059604644775e-02 -4.699000120162963867e-01 1.460000034421682358e-02
-3.500000108033418655e-03 -4.273000061511993408e-01 -9.489999711513519287e-02
4.537000060081481934e-01 -1.027999967336654663e-01 -2.436999976634979248e-01
-7.537000179290771484e-01 -4.749999940395355225e-01 3.136999905109405518e-01
5.160999894142150879e-01 -9.319999814033508301e-02 -2.356999963521957397e-01
2.437999993562698364e-01 2.822999954223632812e-01 4.199999850243330002e-03
1.954200029373168945e+00 -4.392000138759613037e-01 -4.722000062465667725e-01
-1.471000015735626221e-01 3.779999911785125732e-02 -3.125999867916107178e-01
7.462999820709228516e-01 -3.382999897003173828e-01 -2.122000008821487427e-01
4.979999959468841553e-01 -4.720000028610229492e-01 1.640000045299530029e-01
2.400000020861625671e-02 -4.668000042438507080e-01 4.899999871850013733e-02
-6.955000162124633789e-01 -4.767999947071075439e-01 1.316000074148178101e-01
7.261000275611877441e-01 -4.779999852180480957e-01 -1.379999984055757523e-02
1.860000006854534149e-02 6.880000233650207520e-02 -9.399999678134918213e-02
1.539999991655349731e-02 -2.410000003874301910e-02 -7.460000365972518921e-02
2.070000022649765015e-01 -4.670000076293945312e-01 -1.163000017404556274e-01
6.769999861717224121e-02 -4.699999988079071045e-01 5.249000191688537598e-01
4.683000147342681885e-01 -4.688999950885772705e-01 -2.433999925851821899e-01
3.571000099182128906e-01 -4.691999852657318115e-01 1.228000000119209290e-01
7.922000288963317871e-01 8.250000327825546265e-02 -2.061000019311904907e-01
1.237000003457069397e-01 1.238000020384788513e-01 -2.809999883174896240e-01
-5.640000104904174805e-01 -3.684000074863433838e-01 -3.675999939441680908e-01
-1.774999946355819702e-01 -4.715999960899353027e-01 -2.944999933242797852e-01
3.200000151991844177e-02 -2.040000073611736298e-02 3.880000114440917969e-02
1.669999957084655762e-01 -4.250000119209289551e-01 -3.043999969959259033e-01
-5.254999995231628418e-01 -4.753000140190124512e-01 1.151999980211257935e-01
-8.730999827384948730e-01 -4.573000073432922363e-01 -4.632000029087066650e-01
-2.520999908447265625e-01 1.339999958872795105e-02 -3.246999979019165039e-01
-4.167999923229217529e-01 -4.769999980926513672e-01 -2.040999978780746460e-01
-1.373200058937072754e+00 -4.801999926567077637e-01 2.152000069618225098e-01
4.639999940991401672e-02 -2.261999994516372681e-01 7.230000197887420654e-02
-1.779999956488609314e-02 -4.338999986648559570e-01 -2.463999986648559570e-01
-3.763999938964843750e-01 2.485000044107437134e-01 -3.440000116825103760e-01
-8.673999905586242676e-01 -4.769000113010406494e-01 2.245000004768371582e-01
3.786000013351440430e-01 -2.775000035762786865e-01 -1.511999964714050293e-01
-2.653000056743621826e-01 -4.709999859333038330e-01 -6.530000269412994385e-02
-7.152000069618225098e-01 -4.702000021934509277e-01 -2.966000139713287354e-01
9.596999883651733398e-01 -2.998000085353851318e-01 -1.897000074386596680e-01
8.015000224113464355e-01 -4.774999916553497314e-01 -1.581999957561492920e-01
-5.790000036358833313e-02 -4.749000072479248047e-01 5.473999977111816406e-01
3.840999901294708252e-01 -4.690000116825103760e-01 3.562000095844268799e-01
-1.252000033855438232e-01 -4.683000147342681885e-01 -2.060000002384185791e-01
-2.076999992132186890e-01 1.603000015020370483e-01 -3.203999996185302734e-01
1.835000067949295044e-01 1.956000030040740967e-01 -2.718999981880187988e-01
4.214000105857849121e-01 -4.693000018596649170e-01 -5.530000105500221252e-02
2.830000035464763641e-02 -3.889000117778778076e-01 -2.137999981641769409e-01
8.554000258445739746e-01 -4.810000061988830566e-01 -6.580000370740890503e-02
-1.075799942016601562e+00 -4.799999892711639404e-01 1.631000041961669922e-01
-3.921000063419342041e-01 -2.202000021934509277e-01 -3.422999978065490723e-01
5.058000087738037109e-01 -4.720000028610229492e-01 -3.319999948143959045e-02
-2.046999931335449219e-01 5.770000070333480835e-02 -3.190999925136566162e-01
6.419999897480010986e-02 -1.218999996781349182e-01 -2.863000035285949707e-01
8.450000286102294922e-01 -4.144999980926513672e-01 -2.090999931097030640e-01
5.252000093460083008e-01 -3.271000087261199951e-01 -2.357999980449676514e-01
-3.280000016093254089e-02 -1.055999994277954102e-01 -2.996000051498413086e-01
6.179999932646751404e-02 -3.116999864578247070e-01 -2.806999981403350830e-01
-4.869000017642974854e-01 -4.779999852180480957e-01 -1.828999966382980347e-01
-1.741999983787536621e-01 -4.199999943375587463e-02 -3.154000043869018555e-01
2.912000119686126709e-01 -1.162000000476837158e-01 2.410000003874301910e-02
3.531999886035919189e-01 -3.334999978542327881e-01 -1.354999989271163940e-01
1.006899952888488770e+00 -4.808000028133392334e-01 1.620000042021274567e-02
1.074699997901916504e+00 -4.575000107288360596e-01 -2.282000035047531128e-01
-1.362499952316284180e+00 -4.808999896049499512e-01 1.228000000119209290e-01
-1.852000057697296143e-01 -3.050999939441680908e-01 -3.163000047206878662e-01
3.700000001117587090e-03 -4.679999947547912598e-01 2.428999990224838257e-01
1.185600042343139648e+00 -4.878000020980834961e-01 2.400000113993883133e-03
-1.347000002861022949e+00 -4.805000126361846924e-01 1.714999973773956299e-01
1.965000033378601074e-01 3.614000082015991211e-01 -2.669999934732913971e-02
1.133000031113624573e-01 3.170000016689300537e-01 -5.299999937415122986e-02
8.579999804496765137e-01 -4.760999977588653564e-01 1.721999943256378174e-01
-1.206099987030029297e+00 -4.790000021457672119e-01 2.345999926328659058e-01
3.914000093936920166e-01 2.840000092983245850e-01 -2.544000148773193359e-01
-1.961999982595443726e-01 -4.720000028610229492e-01 -2.365999966859817505e-01
4.449999928474426270e-01 -6.000000052154064178e-03 -2.448000013828277588e-01
2.885999977588653564e-01 -3.391000032424926758e-01 -8.860000222921371460e-02
7.339000105857849121e-01 3.337000012397766113e-01 -2.073000073432922363e-01
6.399999838322401047e-03 -3.492000102996826172e-01 -9.820000082254409790e-02
-1.604099988937377930e+00 -4.814000129699707031e-01 1.472000032663345337e-01
5.238999724388122559e-01 1.675000041723251343e-01 -2.369000017642974854e-01
5.389999747276306152e-01 -4.144000113010406494e-01 -2.465000003576278687e-01
6.218000054359436035e-01 -2.151000052690505981e-01 -2.228000015020370483e-01
3.104999959468841553e-01 2.480000071227550507e-02 -1.395999938249588013e-01
1.405900001525878906e+00 -4.871000051498413086e-01 -1.542000025510787964e-01
-5.734999775886535645e-01 -3.070000112056732178e-01 -3.646999895572662354e-01
2.924999892711639404e-01 -4.675999879837036133e-01 -1.750999987125396729e-01
6.010000035166740417e-02 -3.131000101566314697e-01 -1.781000047922134399e-01
3.180000185966491699e-02 -2.777000069618225098e-01 3.770000115036964417e-02
-3.242000043392181396e-01 -4.742000102996826172e-01 -1.339000016450881958e-01
-9.028000235557556152e-01 -4.733000099658966064e-01 4.467999935150146484e-01
4.751000106334686279e-01 2.542000114917755127e-01 -2.445999979972839355e-01
-2.129999920725822449e-02 -3.537999987602233887e-01 -2.951000034809112549e-01
-1.629000008106231689e-01 -4.699999988079071045e-01 -1.120000034570693970e-01
-9.746999740600585938e-01 -4.765000045299530029e-01 3.732999861240386963e-01
-3.237000107765197754e-01 -4.749999940395355225e-01 1.360000018030405045e-02
-3.754000067710876465e-01 -3.352999985218048096e-01 -3.418000042438507080e-01
-1.442800045013427734e+00 -4.814999997615814209e-01 5.869999900460243225e-02
1.503299951553344727e+00 -4.880999922752380371e-01 -3.476000130176544189e-01
2.168000042438507080e-01 -4.670000076293945312e-01 4.841000139713287354e-01
2.561999857425689697e-01 -4.610000178217887878e-02 -2.105000019073486328e-01
-1.385599970817565918e+00 -4.819000065326690674e-01 2.659999951720237732e-02
4.430000111460685730e-02 -1.940000057220458984e-01 -1.325999945402145386e-01
3.296000063419342041e-01 2.953999936580657959e-01 -1.257999986410140991e-01
1.124999970197677612e-01 2.258999943733215332e-01 9.059999883174896240e-02
3.046000003814697266e-01 4.239000082015991211e-01 -2.642000019550323486e-01
-2.800000086426734924e-02 -3.242000043392181396e-01 -1.745000034570693970e-01
3.221000134944915771e-01 -3.926999866962432861e-01 -2.628999948501586914e-01
4.835000038146972656e-01 -4.715999960899353027e-01 2.669999934732913971e-02
-3.158999979496002197e-01 -4.729999899864196777e-01 -8.299999684095382690e-02
-7.899999618530273438e-03 -4.251999855041503906e-01 9.179999679327011108e-02
6.565999984741210938e-01 -4.769999980926513672e-01 2.779000103473663330e-01
-1.256800055503845215e+00 -4.774999916553497314e-01 4.349999874830245972e-02
7.662000060081481934e-01 1.536999940872192383e-01 -2.099999934434890747e-01
1.027999967336654663e-01 -4.691999852657318115e-01 4.862999916076660156e-01
6.200000178068876266e-03 -3.452000021934509277e-01 -2.559999935328960419e-02
5.536000132560729980e-01 1.273999959230422974e-01 -2.328999936580657959e-01
3.869999945163726807e-02 5.510000139474868774e-02 -1.419000029563903809e-01
7.056999802589416504e-01 -4.778999984264373779e-01 1.880999952554702759e-01
1.539999991655349731e-02 2.054000049829483032e-01 -1.539999991655349731e-02
-6.165999770164489746e-01 -2.824000120162963867e-01 -3.684000074863433838e-01
7.067999839782714844e-01 1.468999981880187988e-01 -2.163999974727630615e-01
4.429000020027160645e-01 -4.684000015258789062e-01 2.741000056266784668e-01
5.959999933838844299e-02 3.849000036716461182e-01 -2.451000064611434937e-01
8.438000082969665527e-01 1.890999972820281982e-01 -2.028000056743621826e-01
6.549999862909317017e-02 2.813999950885772705e-01 -4.800000227987766266e-03
6.390000134706497192e-02 -1.579999923706054688e-02 -2.861999869346618652e-01
9.139999747276306152e-01 -3.768999874591827393e-01 -1.957000046968460083e-01
-7.771000266075134277e-01 -4.781000018119812012e-01 1.327999979257583618e-01
-1.612699985504150391e+00 -4.824999868869781494e-01 3.039999902248382568e-01
1.624400019645690918e+00 -4.920000135898590088e-01 -2.962000072002410889e-01
1.003200054168701172e+00 -4.665000140666961670e-01 -1.863999962806701660e-01
1.972000002861022949e-01 -3.445000052452087402e-01 6.599999964237213135e-02
-5.742999911308288574e-01 -4.375999867916107178e-01 -3.740000128746032715e-01
3.923000097274780273e-01 -3.632000088691711426e-01 -8.540000021457672119e-02
-7.479999959468841553e-02 -4.499999806284904480e-03 -3.037999868392944336e-01
1.059999968856573105e-02 1.447000056505203247e-01 -3.680000081658363342e-02
9.445000290870666504e-01 -4.156999886035919189e-01 -1.950999945402145386e-01
1.710000075399875641e-02 2.989999949932098389e-02 3.400000045076012611e-03
-2.657999992370605469e-01 -7.280000299215316772e-02 -3.260999917984008789e-01
-5.163000226020812988e-01 -4.562000036239624023e-01 -3.621999919414520264e-01
1.114599943161010742e+00 -4.869999885559082031e-01 4.699999839067459106e-02
-1.718799948692321777e+00 -4.821999967098236084e-01 1.554999947547912598e-01
3.122000098228454590e-01 2.251999974250793457e-01 -3.429999947547912598e-02
-1.037600040435791016e+00 -4.783000051975250244e-01 3.260000050067901611e-01
-2.040800094604492188e+00 -4.905000030994415283e-01 1.918999999761581421e-01
1.222999989986419678e-01 2.331999987363815308e-01 -2.267999947071075439e-01
-5.521000027656555176e-01 2.709000110626220703e-01 -3.652000129222869873e-01
1.750999987125396729e-01 2.799000144004821777e-01 5.930000171065330505e-02
-2.978999912738800049e-01 2.989999949932098389e-02 -3.301999866962432861e-01
6.348999738693237305e-01 -1.162000000476837158e-01 -2.215999960899353027e-01
1.370999962091445923e-01 2.231000065803527832e-01 -2.782000005245208740e-01
-1.587200045585632324e+00 -4.796999990940093994e-01 1.962999999523162842e-01
3.222000002861022949e-01 2.451999932527542114e-01 -1.471000015735626221e-01
5.755000114440917969e-01 2.928999960422515869e-01 -2.327000051736831665e-01
2.770000100135803223e-01 7.460000365972518921e-02 -1.934999972581863403e-01
3.950999975204467773e-01 3.941000103950500488e-01 -2.547000050544738770e-01
2.748999893665313721e-01 -2.597999870777130127e-01 -1.588000059127807617e-01
8.654000163078308105e-01 1.439999975264072418e-02 -1.974000036716461182e-01
4.070000052452087402e-01 -3.553000092506408691e-01 -1.544999927282333374e-01
-1.766299962997436523e+00 -4.817000031471252441e-01 8.129999786615371704e-02
-1.715999990701675415e-01 -4.699000120162963867e-01 2.669999897480010986e-01
2.630000002682209015e-02 1.058999970555305481e-01 -2.906000018119812012e-01
4.889999926090240479e-01 -4.266000092029571533e-01 -2.538000047206878662e-01
-4.490000009536743164e-02 -3.298000097274780273e-01 -1.115999966859817505e-01
-2.035000026226043701e-01 -4.709999859333038330e-01 3.443000018596649170e-01
-5.700000096112489700e-03 1.872999966144561768e-01 -2.966000139713287354e-01
1.313400030136108398e+00 -4.862000048160552979e-01 -1.871999949216842651e-01
6.425999999046325684e-01 -4.760000109672546387e-01 5.730000138282775879e-02
4.699999839067459106e-02 2.658999860286712646e-01 -9.520000219345092773e-02
-5.439000129699707031e-01 -1.330000013113021851e-01 -3.565999865531921387e-01
-1.348000019788742065e-01 -4.679000079631805420e-01 6.089999899268150330e-02
7.469999790191650391e-02 2.761000096797943115e-01 -2.885000109672546387e-01
9.556999802589416504e-01 -4.799999892711639404e-01 3.249999880790710449e-02
-2.851000130176544189e-01 -4.688999950885772705e-01 4.541999995708465576e-01
6.011000275611877441e-01 -4.745000004768371582e-01 1.403000056743621826e-01
4.639999940991401672e-02 -4.562000036239624023e-01 1.456999927759170532e-01
3.016000092029571533e-01 -1.062000021338462830e-01 -1.511999964714050293e-01
-9.528999924659729004e-01 -4.255000054836273193e-01 -4.490999877452850342e-01
-7.336999773979187012e-01 -4.758999943733215332e-01 3.844000101089477539e-01
-4.269999861717224121e-01 -3.163000047206878662e-01 -3.465999960899353027e-01
1.075500011444091797e+00 -4.842999875545501709e-01 -1.339000016450881958e-01
3.878000080585479736e-01 -1.746000051498413086e-01 -2.509000003337860107e-01
2.078000009059906006e-01 4.530999958515167236e-01 -2.797999978065490723e-01
-4.120000004768371582e-01 -4.720000028610229492e-01 3.001999855041503906e-01
-6.761999726295471191e-01 -4.709999859333038330e-01 -3.479000031948089600e-01
-8.244000077247619629e-01 -4.704000055789947510e-01 -3.538999855518341064e-01
4.379000067710876465e-01 -2.680999934673309326e-01 -2.460999935865402222e-01
2.578000128269195557e-01 -3.441999852657318115e-01 -4.439999908208847046e-02
-1.834000051021575928e-01 -1.254000067710876465e-01 -3.161000013351440430e-01
2.847000062465667725e-01 1.847999989986419678e-01 -1.921000033617019653e-01
-1.336300015449523926e+00 -4.812999963760375977e-01 8.299999684095382690e-02
8.123000264167785645e-01 -1.167000010609626770e-01 -2.030999958515167236e-01
1.143999993801116943e-01 -1.859000027179718018e-01 -2.712999880313873291e-01
3.524999916553497314e-01 -1.216000020503997803e-01 -2.567999958992004395e-01
9.192000031471252441e-01 -1.833000034093856812e-01 -1.897000074386596680e-01
2.461999952793121338e-01 -1.162000000476837158e-01 8.600000292062759399e-02
4.038999974727630615e-01 1.035000011324882507e-01 -2.509000003337860107e-01
-6.150000095367431641e-01 -4.758000075817108154e-01 -2.847000062465667725e-01
2.718000113964080811e-01 -3.510000184178352356e-02 5.550000071525573730e-02
-4.589999914169311523e-01 -1.553000062704086304e-01 -3.510000109672546387e-01
-5.232999920845031738e-01 -8.420000225305557251e-02 -3.562000095844268799e-01
2.989999949932098389e-01 -2.539999969303607941e-02 -1.574999988079071045e-01
-4.069999977946281433e-02 -4.591000080108642578e-01 9.589999914169311523e-02
-1.553500056266784668e+00 -4.819999933242797852e-01 1.008000001311302185e-01
-3.345000147819519043e-01 -7.100000046193599701e-03 -3.353999853134155273e-01
2.349999994039535522e-01 -4.654000103473663330e-01 -2.531999945640563965e-01
4.638000130653381348e-01 1.518999934196472168e-01 -2.433000057935714722e-01
-1.826999932527542114e-01 -4.709999859333038330e-01 -2.510000020265579224e-02
1.433599948883056641e+00 -4.880000054836273193e-01 -3.041999936103820801e-01
-1.123399972915649414e+00 -4.790000021457672119e-01 2.964000105857849121e-01
8.794999718666076660e-01 -4.691999852657318115e-01 -1.935999989509582520e-01
7.063000202178955078e-01 -6.499999761581420898e-02 -2.160000056028366089e-01
7.027999758720397949e-01 -4.769999980926513672e-01 1.309999972581863403e-01
4.401000142097473145e-01 4.514000117778778076e-01 -2.500000000000000000e-01
4.589999839663505554e-02 1.653999984264373779e-01 5.669999867677688599e-02
2.009999938309192657e-02 1.184000000357627869e-01 9.600000455975532532e-03
1.920000091195106506e-02 2.126999944448471069e-01 -1.032999977469444275e-01
-2.460000067949295044e-01 -4.720000028610229492e-01 3.750999867916107178e-01
-2.658999860286712646e-01 -4.720999896526336670e-01 -1.642999947071075439e-01
6.528000235557556152e-01 -4.657999873161315918e-01 -2.248000055551528931e-01
2.689000070095062256e-01 -2.060000002384185791e-01 -2.624999880790710449e-01
5.267000198364257812e-01 7.949999719858169556e-02 -2.355999946594238281e-01
7.547000050544738770e-01 -4.733999967575073242e-01 2.053000032901763916e-01
7.006000280380249023e-01 -4.779999852180480957e-01 -1.448999941349029541e-01
-6.553000211715698242e-01 -3.240999877452850342e-01 -3.754999935626983643e-01
1.540199995040893555e+00 -4.900000095367431641e-01 -2.702000141143798828e-01
2.178000062704086304e-01 -3.043999969959259033e-01 -2.238000035285949707e-01
2.732000052928924561e-01 -4.659999907016754150e-01 4.869000017642974854e-01
-8.436999917030334473e-01 -4.769999980926513672e-01 1.842000037431716919e-01
1.039000004529953003e-01 3.725000023841857910e-01 -2.813999950885772705e-01
-1.022799968719482422e+00 -4.790999889373779297e-01 8.190000057220458984e-02
1.832999944686889648e+00 -4.857999980449676514e-01 -4.609000086784362793e-01
-2.740000002086162567e-02 -3.856999874114990234e-01 -1.858000010251998901e-01
1.095100045204162598e+00 -4.830000102519989014e-01 -5.339999869465827942e-02
5.569999814033508301e-01 -4.729999899864196777e-01 3.763000071048736572e-01
-2.696999907493591309e-01 -3.447000086307525635e-01 -3.280999958515167236e-01
-4.314999878406524658e-01 -4.420999884605407715e-01 -3.544000089168548584e-01
-3.273000121116638184e-01 -4.720000028610229492e-01 3.838999867439270020e-01
3.176999986171722412e-01 3.682999908924102783e-01 -1.986999958753585815e-01
6.265000104904174805e-01 8.280000090599060059e-02 -2.249000072479248047e-01
2.334000021219253540e-01 1.250000000000000000e-01 -2.653000056743621826e-01
-8.554000258445739746e-01 -4.760000109672546387e-01 2.750000059604644775e-01
-1.285599946975708008e+00 -4.810000061988830566e-01 8.349999785423278809e-02
1.539999991655349731e-02 -2.790000140666961670e-01 -2.312999963760375977e-01
1.273999959230422974e-01 3.231000006198883057e-01 -1.430999934673309326e-01
2.031999975442886353e-01 -1.500000013038516045e-03 1.037999987602233887e-01
2.906000018119812012e-01 2.827999889850616455e-01 -6.970000267028808594e-02
-7.410000264644622803e-02 -4.702999889850616455e-01 -7.299999892711639404e-02
5.044999718666076660e-01 -4.760000109672546387e-01 -1.957000046968460083e-01
-1.666499972343444824e+00 -4.801999926567077637e-01 2.239000052213668823e-01
-4.131000041961669922e-01 -4.771000146865844727e-01 5.510000139474868774e-02
-3.513999879360198975e-01 -4.760000109672546387e-01 -2.370000071823596954e-02
1.300000026822090149e-02 -4.598000049591064453e-01 -1.613000035285949707e-01
3.327000141143798828e-01 -4.686000049114227295e-01 -2.072000056505203247e-01
-5.002999901771545410e-01 -3.723999857902526855e-01 -3.592999875545501709e-01
6.122000217437744141e-01 3.725000023841857910e-01 -2.202000021934509277e-01
-8.148000240325927734e-01 -4.753000140190124512e-01 4.275000095367431641e-01
-2.356999963521957397e-01 -2.055999934673309326e-01 -3.222999870777130127e-01
-2.506999969482421875e-01 -4.724999964237213135e-01 2.786000072956085205e-01
-3.700000001117587090e-03 -2.436999976634979248e-01 -1.659000068902969360e-01
2.727000117301940918e-01 -5.260000005364418030e-02 -2.655000090599060059e-01
1.940000057220458984e-01 1.614000052213668823e-01 1.032999977469444275e-01
-9.520000219345092773e-02 -3.037999868392944336e-01 -3.066000044345855713e-01
8.413000106811523438e-01 1.083000004291534424e-01 -2.005999982357025146e-01
-3.133000135421752930e-01 7.400000095367431641e-02 -3.332999944686889648e-01
3.600000143051147461e-01 -4.167999923229217529e-01 -1.488000005483627319e-01
-2.260999977588653564e-01 -2.769999951124191284e-02 -3.219000101089477539e-01
-3.829999864101409912e-01 -2.529999986290931702e-02 -3.397000133991241455e-01
1.733999997377395630e-01 3.140000104904174805e-01 -2.784999907016754150e-01
7.052000164985656738e-01 2.321999967098236084e-01 -2.143000066280364990e-01
-2.143999934196472168e-01 2.058999985456466675e-01 -3.217000067234039307e-01
2.734000086784362793e-01 2.935999929904937744e-01 -1.854999959468841553e-01
2.240000069141387939e-01 -3.531000018119812012e-01 -2.759999930858612061e-01
-5.264999866485595703e-01 -4.724999964237213135e-01 4.137000143527984619e-01
-1.178999990224838257e-01 -4.709999859333038330e-01 3.364000022411346436e-01
1.415999978780746460e-01 -4.670000076293945312e-01 3.041000068187713623e-01
-5.228000283241271973e-01 -4.785000085830688477e-01 -2.535000145435333252e-01
-2.953000068664550781e-01 -4.740000069141387939e-01 1.054999977350234985e-01
-1.466099977493286133e+00 -4.814999997615814209e-01 1.518000066280364990e-01
7.410000264644622803e-02 -3.519999980926513672e-01 -1.181999966502189636e-01
-3.445000052452087402e-01 -4.726999998092651367e-01 2.852999866008758545e-01
-1.824000030755996704e-01 -4.715999960899353027e-01 4.402999877929687500e-01
-1.827299952507019043e+00 -4.842999875545501709e-01 1.776999980211257935e-01
-1.904899954795837402e+00 -4.837000072002410889e-01 1.216999962925910950e-01
1.957000046968460083e-01 -4.672999978065490723e-01 1.439999975264072418e-02
1.012500047683715820e+00 -4.819999933242797852e-01 -5.380000174045562744e-02
-1.267099976539611816e+00 -4.805999994277954102e-01 3.885999917984008789e-01
3.276999890804290771e-01 -3.445000052452087402e-01 -3.720000013709068298e-02
1.582100033760070801e+00 -4.855000078678131104e-01 -3.987999856472015381e-01
3.781999945640563965e-01 -3.576000034809112549e-01 -1.099999994039535522e-03
2.693000137805938721e-01 -3.041000068187713623e-01 1.439999975264072418e-02
-1.295199990272521973e+00 -4.810000061988830566e-01 1.723999977111816406e-01
8.569999784231185913e-02 -4.675000011920928955e-01 3.621999919414520264e-01
-1.385800004005432129e+00 -4.781000018119812012e-01 3.332999944686889648e-01
-2.696000039577484131e-01 -2.793999910354614258e-01 -3.258000016212463379e-01
2.779000103473663330e-01 1.791999936103820801e-01 -2.596000134944915771e-01
3.438000082969665527e-01 -4.377000033855438232e-01 -1.329999975860118866e-02
1.184000000357627869e-01 4.422999918460845947e-01 -2.872999906539916992e-01
3.469999879598617554e-02 2.242999970912933350e-01 -2.874000072479248047e-01
-1.342000067234039307e-01 3.632999956607818604e-01 -3.151000142097473145e-01
-1.421999931335449219e-01 -4.679000079631805420e-01 1.351999938488006592e-01
7.853999733924865723e-01 -3.055000007152557373e-01 -2.085999995470046997e-01
-1.229000017046928406e-01 -4.659999907016754150e-01 -1.459999978542327881e-01
-5.689999833703041077e-02 -4.722000062465667725e-01 6.147000193595886230e-01
4.451999962329864502e-01 -4.749000072479248047e-01 -1.448000073432922363e-01
-3.582000136375427246e-01 -4.690000116825103760e-01 4.675000011920928955e-01
-2.937000095844268799e-01 2.034000009298324585e-01 -3.314999938011169434e-01
6.205999851226806641e-01 2.026000022888183594e-01 -2.270999997854232788e-01
-4.266000092029571533e-01 -2.493000030517578125e-01 -3.465999960899353027e-01
1.070000045001506805e-02 -2.874000072479248047e-01 -1.293999999761581421e-01
5.579999834299087524e-02 -1.018000021576881409e-01 -1.421000063419342041e-01
-8.699999749660491943e-02 -4.684999883174896240e-01 2.569000124931335449e-01
-2.007699966430664062e+00 -4.842999875545501709e-01 2.497999966144561768e-01
2.662999927997589111e-01 2.340999990701675415e-01 5.449999868869781494e-02
-1.759999990463256836e-01 -4.706000089645385742e-01 2.067999988794326782e-01
1.002400040626525879e+00 -3.743999898433685303e-01 -1.982000023126602173e-01
-1.266499996185302734e+00 -4.810000061988830566e-01 1.360000073909759521e-01
7.899999618530273438e-03 -4.699999988079071045e-01 4.812999963760375977e-01
-2.222000062465667725e-01 -4.720000028610229492e-01 2.030999958515167236e-01
2.620000019669532776e-02 1.453000009059906006e-01 -1.668999940156936646e-01
-4.050999879837036133e-01 -4.699999988079071045e-01 4.383000135421752930e-01
-9.269999712705612183e-02 -4.149999916553497314e-01 -3.237000107765197754e-01
8.490999937057495117e-01 -2.141000032424926758e-01 -1.994999945163726807e-01
-3.601999878883361816e-01 1.256999969482421875e-01 -3.400000035762786865e-01
9.390000253915786743e-02 1.574999988079071045e-01 -2.840000092983245850e-01
1.463000029325485229e-01 -3.120999932289123535e-01 9.260000288486480713e-02
-7.731999754905700684e-01 -4.749999940395355225e-01 2.730999886989593506e-01
3.009999990463256836e-01 -1.014999970793724060e-01 -3.339999914169311523e-02
1.414000034332275391e+00 -4.869000017642974854e-01 -2.239000052213668823e-01
-6.733999848365783691e-01 -4.722000062465667725e-01 4.550999999046325684e-01
-2.878000140190124512e-01 -4.720000028610229492e-01 3.052000105381011963e-01
-1.710000075399875641e-02 -4.688000082969665527e-01 -4.699999932199716568e-03
1.526399970054626465e+00 -4.882999956607818604e-01 -1.841000020503997803e-01
-4.781999886035919189e-01 -2.381000071763992310e-01 -3.531000018119812012e-01
-4.347999989986419678e-01 1.755000054836273193e-01 -3.485000133514404297e-01
-1.164999976754188538e-01 4.438999891281127930e-01 -3.134999871253967285e-01
4.787999987602233887e-01 -3.312999904155731201e-01 -2.432000041007995605e-01
5.232999920845031738e-01 -4.690000116825103760e-01 2.831999957561492920e-01
1.681100010871887207e+00 -4.936999976634979248e-01 -4.271999895572662354e-01
1.339999958872795105e-02 -2.770999968051910400e-01 -1.710000075399875641e-02
1.156700015068054199e+00 -4.830999970436096191e-01 -3.500000014901161194e-02
1.004899978637695312e+00 -4.839999973773956299e-01 -1.030000001192092896e-01
2.569000124931335449e-01 -3.100000023841857910e-01 -7.620000094175338745e-02
7.358999848365783691e-01 -7.100000046193599701e-03 -2.123000025749206543e-01
3.551999926567077637e-01 -2.933999896049499512e-01 -3.899999894201755524e-03
-6.039999723434448242e-01 -3.968999981880187988e-01 -3.720000088214874268e-01
6.266999840736389160e-01 -4.156999886035919189e-01 -2.372000068426132202e-01
-2.867999970912933350e-01 -4.718999862670898438e-01 3.567999899387359619e-01
3.634000122547149658e-01 2.160000056028366089e-01 -2.535000145435333252e-01
-2.000000094994902611e-03 -5.799999833106994629e-02 -2.955999970436096191e-01
7.822999954223632812e-01 -2.390000037848949432e-02 -2.075999975204467773e-01
-1.855599999427795410e+00 -4.826000034809112549e-01 9.579999744892120361e-02
7.782999873161315918e-01 1.965000033378601074e-01 -2.067999988794326782e-01
5.868999958038330078e-01 -4.749000072479248047e-01 4.659999907016754150e-02
-1.920000091195106506e-02 -2.739000022411346436e-01 -2.037000060081481934e-01
-9.690000116825103760e-02 -4.661000072956085205e-01 -2.561999857425689697e-01
-7.145000100135803223e-01 -4.749999940395355225e-01 2.240999937057495117e-01
2.939999997615814209e-01 3.154000043869018555e-01 -1.435000002384185791e-01
-1.460999965667724609e+00 -4.817000031471252441e-01 3.725999891757965088e-01
-2.456000000238418579e-01 -1.185000017285346985e-01 -3.242999911308288574e-01
9.251999855041503906e-01 -4.819999933242797852e-01 -1.152999997138977051e-01
-3.962999880313873291e-01 -4.769999980926513672e-01 -1.243000030517578125e-01
-1.440999984741210938e+00 -4.799999892711639404e-01 2.885999977588653564e-01
6.471999883651733398e-01 -4.769000113010406494e-01 2.049999982118606567e-01
6.865000128746032715e-01 -3.756999969482421875e-01 -2.240999937057495117e-01
1.546999961137771606e-01 3.644999861717224121e-01 -6.669999659061431885e-02
1.435000002384185791e-01 -4.672999978065490723e-01 -1.465999931097030640e-01
-3.336000144481658936e-01 -4.771000146865844727e-01 -2.231000065803527832e-01
5.155000090599060059e-01 -4.722999930381774902e-01 2.046999931335449219e-01
5.687999725341796875e-01 -4.469999969005584717e-01 -2.433000057935714722e-01
7.247999906539916992e-01 -2.356999963521957397e-01 -2.119999974966049194e-01
1.035500049591064453e+00 -4.433999955654144287e-01 -2.132000029087066650e-01
3.880999982357025146e-01 -2.897000014781951904e-01 -7.810000330209732056e-02
-1.312000006437301636e-01 -4.699999988079071045e-01 2.867000102996826172e-01
3.660000115633010864e-02 -4.690000116825103760e-01 -7.320000231266021729e-02
2.372000068426132202e-01 -4.670000076293945312e-01 -1.928000003099441528e-01
1.152799963951110840e+00 -4.850000143051147461e-01 -1.164000034332275391e-01
-2.567000091075897217e-01 -4.740000069141387939e-01 -2.413000017404556274e-01
-1.522400021553039551e+00 -4.799999892711639404e-01 1.914999932050704956e-01
9.740000218152999878e-02 -3.030999898910522461e-01 8.579999953508377075e-02
2.021999955177307129e-01 -4.638000130653381348e-01 1.246000006794929504e-01
-1.341099977493286133e+00 -4.803000092506408691e-01 3.490000069141387939e-01
8.838999867439270020e-01 6.509999930858612061e-02 -1.933999955654144287e-01
-3.625999987125396729e-01 -4.760000109672546387e-01 1.124000027775764465e-01
-1.339999958872795105e-02 -3.804000020027160645e-01 -6.629999727010726929e-02
-1.543000042438507080e-01 -4.700999855995178223e-01 3.668000102043151855e-01
1.342300057411193848e+00 -4.866000115871429443e-01 -2.754000127315521240e-01
7.753999829292297363e-01 -4.769999980926513672e-01 -1.049000024795532227e-01
-1.416200041770935059e+00 -4.803999960422515869e-01 2.064000070095062256e-01
-1.113000035285949707e+00 -4.785000085830688477e-01 3.761000037193298340e-01
-4.226999878883361816e-01 -4.740999937057495117e-01 2.358999997377395630e-01
-3.251000046730041504e-01 -1.483000069856643677e-01 -3.328000009059906006e-01
1.758999973535537720e-01 -4.670000076293945312e-01 3.745000064373016357e-01
1.255200028419494629e+00 -4.869999885559082031e-01 -5.139999836683273315e-02
-2.152000069618225098e-01 3.140999972820281982e-01 -3.235000073909759521e-01
1.224200010299682617e+00 -4.860000014305114746e-01 -1.544999927282333374e-01
8.751999735832214355e-01 -2.746999859809875488e-01 -1.978999972343444824e-01
7.771999835968017578e-01 -4.772000014781951904e-01 -1.948000043630599976e-01
1.348000019788742065e-01 -4.679999947547912598e-01 4.439999908208847046e-02
-3.239000141620635986e-01 -4.702999889850616455e-01 4.341000020503997803e-01
-1.524000048637390137e+00 -4.794999957084655762e-01 4.041000008583068848e-01
2.510000020265579224e-02 -2.143999934196472168e-01 -2.878000140190124512e-01
5.060999989509582520e-01 -4.774999916553497314e-01 4.620000123977661133e-01
-2.353000044822692871e-01 -4.727999866008758545e-01 1.570000052452087402e-01
4.348999857902526855e-01 1.931000053882598877e-01 -2.468000054359436035e-01
1.884400010108947754e+00 -4.975999891757965088e-01 -4.453000128269195557e-01
-8.234999775886535645e-01 -4.769999980926513672e-01 3.443999886512756348e-01
1.292799949645996094e+00 -4.875999987125396729e-01 -1.430999934673309326e-01
7.335000038146972656e-01 -1.048000007867813110e-01 -2.122000008821487427e-01
2.989999949932098389e-01 -2.558000087738037109e-01 -3.260000050067901611e-02
-7.368000149726867676e-01 -4.562999904155731201e-01 -3.937999904155731201e-01
1.544399976730346680e+00 -4.882999956607818604e-01 -3.334999978542327881e-01
1.597000002861022949e+00 -4.884999990463256836e-01 -1.820999979972839355e-01
2.134999930858612061e-01 3.348999917507171631e-01 -1.270000040531158447e-01
-2.759999930858612061e-01 -4.765999913215637207e-01 -2.917000055313110352e-01
1.448000073432922363e-01 3.943000137805938721e-01 -2.653999924659729004e-01
-1.759999990463256836e-02 -4.731999933719635010e-01 6.366000175476074219e-01
-5.663999915122985840e-01 -2.105000019073486328e-01 -3.632999956607818604e-01
9.329999983310699463e-02 2.642000019550323486e-01 -2.354999929666519165e-01
-1.782500028610229492e+00 -4.864000082015991211e-01 2.755999863147735596e-01
-3.424000144004821777e-01 -4.584000110626220703e-01 -3.406000137329101562e-01
2.707999944686889648e-01 1.444000005722045898e-01 6.150000169873237610e-02
1.915500044822692871e+00 -4.550000131130218506e-01 -4.833000004291534424e-01
1.740999966859817505e-01 2.450000047683715820e-01 -2.737999856472015381e-01
8.555999994277954102e-01 -1.194000020623207092e-01 -1.955000013113021851e-01
-3.057000041007995605e-01 -4.736999869346618652e-01 2.054000049829483032e-01
-1.725800037384033203e+00 -4.815999865531921387e-01 9.629999846220016479e-02
3.260000050067901611e-02 -4.742999970912933350e-01 6.051999926567077637e-01
5.296999812126159668e-01 4.499999880790710449e-01 -2.378000020980834961e-01
-1.219999976456165314e-02 -2.518000006675720215e-01 -1.209999993443489075e-01
1.743000000715255737e-01 -2.633000016212463379e-01 1.137000024318695068e-01
5.579000115394592285e-01 -3.551999926567077637e-01 -2.345000058412551880e-01
3.224999904632568359e-01 -4.697000086307525635e-01 2.931999862194061279e-01
3.034999966621398926e-01 -4.690000116825103760e-01 1.788000017404556274e-01
-1.176399946212768555e+00 -4.767999947071075439e-01 3.939999938011169434e-01
2.590999901294708252e-01 -4.244999885559082031e-01 1.394000053405761719e-01
-7.163000106811523438e-01 -4.140000045299530029e-01 -3.971000015735626221e-01
-1.381999969482421875e+00 -4.769999980926513672e-01 4.248999953269958496e-01
9.803000092506408691e-01 -4.855000078678131104e-01 1.664000004529953003e-01
1.451999992132186890e-01 8.460000157356262207e-02 1.027000024914741516e-01
2.700000070035457611e-03 -4.690999984741210938e-01 3.858000040054321289e-01
-1.676800012588500977e+00 -4.819000065326690674e-01 1.645999997854232788e-01
2.240000069141387939e-01 -4.679999947547912598e-01 -2.339999936521053314e-02
-3.929999843239784241e-02 -4.688999950885772705e-01 1.847999989986419678e-01
2.257000058889389038e-01 -3.500000108033418655e-03 -2.678000032901763916e-01
8.848000168800354004e-01 -4.794000089168548584e-01 -3.429999947547912598e-02
-3.648999929428100586e-01 -4.720000028610229492e-01 3.542999923229217529e-01
1.266100049018859863e+00 -4.826999902725219727e-01 -2.637000083923339844e-01
1.377999931573867798e-01 -4.681000113487243652e-01 -5.829999968409538269e-02
7.943999767303466797e-01 -6.629999727010726929e-02 -2.057999968528747559e-01
-3.991999924182891846e-01 5.389999970793724060e-02 -3.400000035762786865e-01
-1.885800004005432129e+00 -4.857999980449676514e-01 2.434999942779541016e-01
-4.800000041723251343e-02 -3.736000061035156250e-01 -1.040000021457672119e-01
4.061999917030334473e-01 -4.683000147342681885e-01 3.953000009059906006e-01
-1.624600052833557129e+00 -4.805000126361846924e-01 2.322999984025955200e-01
1.866899967193603516e+00 -4.993000030517578125e-01 -3.754999935626983643e-01
-7.169999927282333374e-02 -4.690999984741210938e-01 3.876999914646148682e-01
-8.739999681711196899e-02 -4.704000055789947510e-01 4.754000008106231689e-01
-1.547299981117248535e+00 -4.817000031471252441e-01 2.766000032424926758e-01
-4.650000110268592834e-02 -4.668999910354614258e-01 -1.551000028848648071e-01
-2.041999995708465576e-01 -4.720000028610229492e-01 2.976000010967254639e-01
8.370000123977661133e-02 1.571000069379806519e-01 8.630000054836273193e-02
7.479999959468841553e-02 -2.354999929666519165e-01 -2.818999886512756348e-01
